-0.271796 0.060045 0.868806 255 255 255
2.140432 -0.392761 4.909794 255 255 255
4.889774 0.484346 0.782439 255 255 255
0.235664 0.360443 3.897796 255 255 255
-0.382085 -0.318758 0.499147 255 255 255
4.981709 0.421294 2.447035 255 255 255
0.758568 0.033072 0.152906 255 255 255
3.382657 -0.206299 4.711546 255 255 255
4.567766 0.640915 1.976503 255 255 255
-0.358052 -0.196193 0.093773 255 255 255
-0.315580 -0.258805 0.437761 255 255 255
3.858083 0.016711 -0.739733 255 255 255
-0.282640 -0.460177 0.619403 255 255 255
2.469250 0.596430 4.207207 255 255 255
5.483853 -0.815513 2.226995 255 255 255
3.508469 0.114762 4.283353 255 255 255
0.136776 0.054576 -0.372225 255 255 255
0.359805 0.111846 0.813306 255 255 255
-0.407214 -0.549502 -0.213884 255 255 255
-0.460637 -0.226553 -0.066196 255 255 255
8.759227 5.748026 3.565517 255 255 255
-0.021439 -0.651164 -0.137454 255 255 255
0.566759 0.064422 -0.543309 255 255 255
1.394572 0.768855 -0.468039 255 255 255
2.627497 0.136093 -0.689568 255 255 255
-0.315549 -0.272711 0.420113 255 255 255
0.631987 0.810735 0.289029 255 255 255
-0.351541 -0.205447 0.275026 255 255 255
-0.380975 -0.253763 0.032484 255 255 255
4.969674 -0.825552 1.825415 255 255 255
-0.300770 -0.190637 0.289195 255 255 255
-0.382361 -0.197927 0.096914 255 255 255
2.521960 -0.845242 3.866089 255 255 255
4.374989 0.518099 1.210086 255 255 255
-0.021946 -0.647080 -0.132795 255 255 255
5.021459 -0.428497 -1.032581 255 255 255
-0.390533 -0.177350 -0.073306 255 255 255
0.576616 0.326500 -0.564764 255 255 255
3.540144 -0.168725 -0.703853 255 255 255
4.569340 0.172656 -0.864602 255 255 255
1.155517 -0.688222 0.375253 255 255 255
0.163113 0.127163 3.478783 255 255 255
5.364490 0.026743 -0.274597 255 255 255
-0.305853 0.170600 0.654697 255 255 255
1.151652 -0.685538 0.376893 255 255 255
2.069700 -0.715584 0.318849 255 255 255
4.211791 0.890393 0.621120 255 255 255
0.557863 0.299445 -0.536016 255 255 255
5.684998 -0.890015 4.099304 255 255 255
-0.253199 -0.415395 0.741535 255 255 255
0.597845 0.050147 -0.565755 255 255 255
5.478854 -0.068835 3.703504 255 255 255
0.587898 0.455416 -0.598344 255 255 255
4.152448 -0.193371 -0.794718 255 255 255
0.609079 0.472863 -0.598784 255 255 255
-0.270992 0.457122 0.775559 255 255 255
-0.307618 -0.252470 0.425609 255 255 255
2.701210 -0.804082 3.327918 255 255 255
4.084373 0.183254 -0.888414 255 255 255
-0.328171 -0.303134 0.508240 255 255 255
4.384155 0.003710 2.189773 255 255 255
2.797144 0.901868 1.066032 255 255 255
-0.335472 -0.207540 0.394767 255 255 255
0.747497 -0.813264 4.162800 255 255 255
-0.319717 -0.269783 0.499923 255 255 255
3.552638 0.047251 -0.696794 255 255 255
-0.306695 0.309781 0.634203 255 255 255
-0.279878 -0.488751 0.603689 255 255 255
0.527705 0.295276 2.836961 255 255 255
-0.320088 -0.233788 0.258196 255 255 255
-0.231272 -0.312358 1.038431 255 255 255
3.105911 0.472635 0.194120 255 255 255
2.590151 -0.820387 3.263404 255 255 255
3.408142 0.490899 4.152799 255 255 255
-0.216246 0.358082 0.409759 255 255 255
2.333180 -0.705722 1.179684 255 255 255
-2.606812 -0.928471 3.565520 255 255 255
4.533618 -0.200755 -0.836928 255 255 255
-0.261236 0.042136 0.940117 255 255 255
5.750793 -0.147171 2.658312 255 255 255
0.883252 -0.081422 1.957776 255 255 255
4.255044 -0.791539 -0.025293 255 255 255
5.502975 -0.066747 3.700713 255 255 255
-0.322066 -0.250543 0.484048 255 255 255
0.810417 -0.125223 1.811524 255 255 255
3.433803 0.375082 4.124688 255 255 255
2.412269 0.145378 -0.699371 255 255 255
1.386653 -0.745816 2.199923 255 255 255
4.689471 -0.728952 -0.093903 255 255 255
-0.298398 -0.279656 0.389242 255 255 255
-0.319651 -0.274766 0.257627 255 255 255
-0.305329 -0.261367 0.318453 255 255 255
2.769451 -0.075282 4.823625 255 255 255
4.532762 0.826265 0.677600 255 255 255
-0.268134 0.448826 0.700747 255 255 255
3.801548 -0.723344 0.020949 255 255 255
3.446115 0.187952 4.196918 255 255 255
0.608652 -0.094741 -0.570818 255 255 255
0.947781 0.496089 2.053480 255 255 255
12.355592 7.021933 5.129037 255 255 255
5.604441 -0.875847 2.245690 255 255 255
0.423626 -0.629621 -0.352754 255 255 255
4.156312 0.034185 -0.788785 255 255 255
1.414819 0.844607 3.079621 255 255 255
-0.310570 -0.260552 0.445238 255 255 255
4.919433 0.288110 -0.308951 255 255 255
-0.304855 0.040573 0.669651 255 255 255
-0.334257 -0.244684 0.441643 255 255 255
0.589023 0.047808 -0.553462 255 255 255
2.975248 -0.500302 -0.903114 255 255 255
2.898578 0.513189 4.094392 255 255 255
-0.317246 -0.264538 0.433377 255 255 255
0.238532 -0.660680 0.680788 255 255 255
-0.298985 -0.249783 0.386048 255 255 255
4.871588 0.446090 0.605561 255 255 255
-0.256754 -0.303488 1.038523 255 255 255
-0.324773 -0.240416 0.259210 255 255 255
0.607620 0.020867 -0.667229 255 255 255
5.372162 0.015765 3.353880 255 255 255
4.853586 -0.021433 -0.639681 255 255 255
-0.322649 -0.292577 0.461004 255 255 255
0.346805 0.250735 2.952914 255 255 255
-0.290980 0.036519 0.752317 255 255 255
5.500854 -0.407181 0.712368 255 255 255
-0.317856 -0.262482 0.435881 255 255 255
-0.335236 -0.262504 0.259102 255 255 255
3.054480 -0.046845 -0.651811 255 255 255
-0.319381 -0.215914 0.375932 255 255 255
-0.247306 -0.252751 0.647918 255 255 255
0.635950 -0.097660 -0.540096 255 255 255
0.808303 0.071249 1.256941 255 255 255
-0.298544 -0.219860 0.439442 255 255 255
-0.281106 -0.492792 0.606203 255 255 255
-0.304823 -0.652940 0.754412 255 255 255
3.561839 0.408443 -0.682806 255 255 255
4.841858 1.002231 3.814816 255 255 255
0.523998 0.709254 -0.265339 255 255 255
4.864990 0.632179 0.073845 255 255 255
-0.239099 0.660590 0.920712 255 255 255
0.556037 0.697691 2.726085 255 255 255
3.236664 0.378771 3.798119 255 255 255
1.729588 -0.332014 0.726757 255 255 255
2.879065 -0.741453 0.122899 255 255 255
2.539175 0.509728 4.137372 255 255 255
0.320903 0.594196 4.626310 255 255 255
4.590427 0.269324 -0.724609 255 255 255
-0.222159 -0.342527 0.498655 255 255 255
0.510965 -0.183200 2.025588 255 255 255
4.910844 0.449660 1.311822 255 255 255
0.699968 0.423001 4.788774 255 255 255
5.259364 0.367840 0.106029 255 255 255
5.929827 0.108621 3.235523 255 255 255
2.306137 0.043949 -0.647888 255 255 255
-0.522505 -0.398195 0.198455 255 255 255
0.191912 0.945693 1.271017 255 255 255
5.525365 0.009270 3.287263 255 255 255
0.587635 0.046440 -0.552597 255 255 255
3.504342 0.115331 4.288771 255 255 255
7.798099 5.542824 2.329578 255 255 255
-0.477227 -0.353715 0.028137 255 255 255
-0.282319 0.430854 0.686316 255 255 255
2.408036 -0.806202 2.224562 255 255 255
-0.265206 0.106851 0.899855 255 255 255
5.681913 -0.716458 2.267292 255 255 255
-0.268774 0.429675 0.894679 255 255 255
-0.305096 0.045546 0.651618 255 255 255
4.559143 0.600926 0.141130 255 255 255
5.137288 0.394230 1.596837 255 255 255
5.391675 -0.013604 3.689039 255 255 255
0.584123 0.464855 -0.589137 255 255 255
2.942573 -0.785425 2.739576 255 255 255
3.931232 -0.188088 -0.761998 255 255 255
-0.064515 0.868243 1.770016 255 255 255
-0.246631 0.397952 0.464471 255 255 255
2.716804 0.728646 4.095336 255 255 255
-0.241845 -0.203986 0.306909 255 255 255
-0.283660 0.471222 0.781999 255 255 255
2.804424 -0.639847 4.805114 255 255 255
0.884663 0.280678 1.080139 255 255 255
1.370278 -0.753796 2.352191 255 255 255
-0.262257 -0.323173 0.764236 255 255 255
-0.300667 0.291160 0.624810 255 255 255
0.533695 -0.616652 0.492028 255 255 255
-0.202058 0.166571 0.623704 255 255 255
1.029826 -0.699282 0.573874 255 255 255
-0.292084 -0.247865 0.475664 255 255 255
4.411968 0.112757 4.327880 255 255 255
3.428668 -0.853296 3.757108 255 255 255
-0.323036 -0.304219 0.487077 255 255 255
5.219011 0.279681 -0.004734 255 255 255
4.614759 0.185162 -0.848884 255 255 255
4.377923 -0.829432 -0.002262 255 255 255
2.321577 1.041833 0.262736 255 255 255
0.565199 0.300945 -0.543246 255 255 255
2.934187 0.315959 -0.708968 255 255 255
4.431762 0.666087 2.136818 255 255 255
5.208557 0.654713 0.569297 255 255 255
2.770702 -0.713933 0.667139 255 255 255
-0.277204 -0.208838 0.405706 255 255 255
5.129086 0.630241 -0.222798 255 255 255
-0.231757 0.201929 1.130791 255 255 255
-0.024484 -0.596422 -0.102347 255 255 255
-0.150559 -1.535410 -4.476314 255 255 255
-0.280335 -0.218303 0.382635 255 255 255
-0.314898 -0.285124 0.447595 255 255 255
0.813320 -1.382074 3.982219 255 255 255
-0.973002 1.371930 1.176928 255 255 255
-0.373563 -0.177159 -0.058992 255 255 255
5.494701 -0.036296 3.535110 255 255 255
3.126186 -0.794321 1.886341 255 255 255
2.105350 -0.274896 -0.785178 255 255 255
-0.516034 -0.434792 0.183105 255 255 255
0.804937 0.208146 2.023594 255 255 255
-0.157136 -0.622993 -0.540743 255 255 255
3.931168 0.516248 4.105309 255 255 255
-0.298797 -0.267081 0.328474 255 255 255
1.345887 0.155421 -0.509247 255 255 255
-0.216196 -0.423369 0.713604 255 255 255
-0.396494 -0.247472 -0.000825 255 255 255
-0.411287 -0.352066 0.681705 255 255 255
0.888796 -0.124754 4.543739 255 255 255
3.779636 0.360514 -0.811720 255 255 255
7.116352 -1.430268 5.604757 255 255 255
4.206674 0.138071 -0.754420 255 255 255
-0.369997 -0.259547 -0.001252 255 255 255
5.076975 0.324895 -0.231873 255 255 255
-0.123259 -0.612689 -0.349585 255 255 255
3.960122 0.334882 -0.789937 255 255 255
0.072268 1.015688 1.862126 255 255 255
-0.333428 -0.266603 0.254584 255 255 255
3.180718 0.346209 4.786627 255 255 255
3.537927 -0.467199 4.700666 255 255 255
3.197668 0.256654 4.254655 255 255 255
4.124831 -0.818128 1.953050 255 255 255
-0.334431 -0.233394 0.397520 255 255 255
4.754797 0.468249 3.757901 255 255 255
2.039027 -0.697382 0.259568 255 255 255
-0.326009 -0.242224 0.410786 255 255 255
3.495426 0.187455 4.146772 255 255 255
-0.509501 -0.420332 0.187997 255 255 255
3.055763 0.715140 0.265261 255 255 255
0.859897 -0.165921 1.214702 255 255 255
-0.351840 -0.272164 0.233489 255 255 255
0.291516 -0.139239 4.597538 255 255 255
4.700772 -0.791445 -0.064575 255 255 255
-0.519824 -0.406414 0.175980 255 255 255
-0.375547 -0.220372 -0.061490 255 255 255
-0.309079 0.067370 0.637617 255 255 255
5.724505 -0.422050 8.978071 255 255 255
-0.512669 -0.418296 0.162264 255 255 255
0.576080 0.058384 -0.560769 255 255 255
0.681203 0.681054 -0.498356 255 255 255
-0.305500 -0.250195 0.397883 255 255 255
4.621445 0.273810 4.047612 255 255 255
5.208986 0.265416 1.930890 255 255 255
5.670033 0.040398 3.192137 255 255 255
-0.514299 -0.421206 0.191036 255 255 255
3.004926 -0.800249 3.286558 255 255 255
1.936444 -0.655611 0.391013 255 255 255
3.064707 -0.795862 2.863773 255 255 255
-0.284724 0.069503 0.789881 255 255 255
-0.167583 -0.246732 -0.008537 255 255 255
-0.290470 0.084894 0.842498 255 255 255
0.281132 0.112159 -0.777480 255 255 255
-0.284451 0.050440 0.803175 255 255 255
2.990603 -0.126325 -0.578376 255 255 255
-0.264677 0.476193 0.901513 255 255 255
-0.236358 0.020283 1.127862 255 255 255
-0.302493 -0.261099 0.403372 255 255 255
3.646255 -0.655660 0.099862 255 255 255
2.764172 -0.712429 0.658556 255 255 255
-0.265488 0.106952 0.901079 255 255 255
3.947609 -0.110433 -0.744199 255 255 255
2.059475 -0.685064 3.191933 255 255 255
4.112238 0.404619 -0.769376 255 255 255
-0.325914 -0.303965 0.538848 255 255 255
3.083537 -0.185976 4.758025 255 255 255
-0.359139 0.469921 0.268890 255 255 255
-0.503543 -0.446046 0.189093 255 255 255
-0.317680 -0.271020 0.536104 255 255 255
-0.511010 -0.385354 0.199230 255 255 255
5.193188 0.263716 -0.022439 255 255 255
10.356051 5.555512 4.674159 255 255 255
3.054874 -0.157674 -0.624972 255 255 255
-0.324190 -0.301782 0.537501 255 255 255
-0.260471 -0.620981 1.029192 255 255 255
-0.319765 -0.268276 0.494837 255 255 255
-0.317817 -0.261834 0.477195 255 255 255
-0.543347 -0.440778 0.317997 255 255 255
5.720371 -0.149656 2.604281 255 255 255
2.371755 0.151657 -0.693587 255 255 255
-0.303584 0.304493 0.629562 255 255 255
-0.340542 -0.248632 0.274577 255 255 255
4.051845 -0.801517 1.929608 255 255 255
3.137856 -0.054543 -0.664341 255 255 255
0.731746 0.126353 0.482117 255 255 255
1.050215 0.096578 1.596580 255 255 255
0.434770 -0.768291 2.383109 255 255 255
-0.088659 -0.390644 2.378803 255 255 255
1.275171 -0.077918 2.553006 255 255 255
3.708301 0.416456 4.294373 255 255 255
5.785386 -0.515967 2.332455 255 255 255
5.566538 0.330338 4.051968 255 255 255
0.877138 -0.029951 1.245644 255 255 255
-0.233834 -0.566527 0.741966 255 255 255
-0.343585 -0.251986 0.255196 255 255 255
2.067055 -0.707733 0.425524 255 255 255
5.122499 -0.917531 3.519305 255 255 255
2.268313 -0.792277 0.348173 255 255 255
-0.287230 -0.314692 0.622186 255 255 255
2.196563 -0.635972 5.173940 255 255 255
0.209830 -0.660238 0.508156 255 255 255
-0.299988 0.053148 0.712784 255 255 255
1.400039 0.956268 -0.364926 255 255 255
-0.298523 -0.298871 0.768906 255 255 255
5.675537 -0.904587 3.098460 255 255 255
5.149886 -0.910594 3.494337 255 255 255
3.335813 0.678654 0.434883 255 255 255
2.758103 1.067178 4.481785 255 255 255
0.736882 0.125315 0.485027 255 255 255
-0.261232 -0.314471 0.761099 255 255 255
-0.304142 0.053813 0.689248 255 255 255
4.638597 0.403072 1.076276 255 255 255
-0.545377 -0.422619 0.184927 255 255 255
1.818261 -0.118641 -0.583006 255 255 255
-0.322406 -0.216794 0.379042 255 255 255
-0.178777 -0.241877 -0.025418 255 255 255
-0.266232 0.111161 0.938609 255 255 255
4.607337 0.451279 4.693072 255 255 255
1.281728 0.858726 3.935603 255 255 255
-0.272844 0.245436 0.828844 255 255 255
-0.274036 0.243681 0.830731 255 255 255
-0.227474 0.680096 1.148900 255 255 255
3.797954 -0.728912 0.011044 255 255 255
-0.224595 0.665834 1.136363 255 255 255
0.259271 -0.658570 0.687656 255 255 255
-0.071794 0.661368 1.792203 255 255 255
-0.319856 -0.236650 0.258345 255 255 255
2.644770 -0.703784 0.565049 255 255 255
-0.269449 0.431450 0.902451 255 255 255
-0.328974 -0.272613 0.495524 255 255 255
-0.291271 -0.316315 0.777489 255 255 255
2.880116 -0.576481 -1.206090 255 255 255
2.039372 -0.706634 0.431010 255 255 255
-0.293918 -0.317634 0.766170 255 255 255
5.195492 0.462371 3.467230 255 255 255
0.727003 0.123905 0.479401 255 255 255
0.277419 0.424578 0.660612 255 255 255
-0.397543 -0.570291 -0.215410 255 255 255
-0.301572 -0.299409 0.775887 255 255 255
2.331282 -0.813966 0.314073 255 255 255
-0.123361 -0.377659 2.330203 255 255 255
70.835625 53.393314 20.514612 255 255 255
-0.228911 -0.359301 0.658679 255 255 255
-0.528364 -0.455852 0.157481 255 255 255
2.710316 0.760798 -0.725040 255 255 255
1.740807 0.590107 -0.532053 255 255 255
4.540417 -0.200003 -0.841521 255 255 255
3.527641 -0.475516 4.710929 255 255 255
3.481327 0.181490 4.161180 255 255 255
-0.243648 -0.276112 0.537980 255 255 255
0.133909 0.376095 1.856147 255 255 255
5.341957 0.478851 0.743618 255 255 255
2.356653 -0.714306 0.601827 255 255 255
2.535674 -0.422215 -0.874004 255 255 255
2.929092 -0.706469 0.287325 255 255 255
0.189806 0.895567 1.790590 255 255 255
-0.251896 -0.452801 0.618705 255 255 255
3.434740 0.203870 4.084143 255 255 255
3.351020 0.701747 0.081769 255 255 255
3.771471 0.822096 3.541237 255 255 255
-0.276195 -0.458855 0.602956 255 255 255
5.113978 0.763569 3.724480 255 255 255
0.459538 0.718705 1.075648 255 255 255
2.197871 0.413536 -0.647919 255 255 255
5.077662 0.249457 2.289646 255 255 255
0.088846 0.371695 1.841112 255 255 255
-0.250654 -0.454964 0.625247 255 255 255
2.574765 -0.732220 0.563386 255 255 255
2.133408 -0.748605 0.381545 255 255 255
3.343497 -0.167920 -0.663932 255 255 255
0.094732 -0.663338 -0.438113 255 255 255
0.067815 -0.574689 3.008219 255 255 255
4.467713 1.012562 0.169757 255 255 255
0.387598 -0.178808 1.735051 255 255 255
0.204234 0.083880 -0.560089 255 255 255
0.749010 -0.095573 0.072992 255 255 255
3.475551 0.179316 4.345704 255 255 255
3.122774 -0.169872 4.769602 255 255 255
3.437791 -0.864399 3.793194 255 255 255
1.981777 -0.713828 0.286721 255 255 255
-0.054715 -0.345230 2.281934 255 255 255
5.190023 0.627643 0.813386 255 255 255
-0.512817 -0.449210 0.155242 255 255 255
-0.176293 -0.079000 -0.682366 255 255 255
4.851851 0.328097 -0.191682 255 255 255
-0.473700 -0.377013 0.182428 255 255 255
5.802137 -0.768452 2.817698 255 255 255
0.890854 -0.007552 1.314916 255 255 255
4.678344 0.507235 1.957134 255 255 255
4.919758 0.337999 1.174265 255 255 255
-0.261825 0.474825 0.894534 255 255 255
2.330201 -0.502620 4.875778 255 255 255
-0.293169 0.051675 0.709890 255 255 255
1.112401 0.537872 -0.490018 255 255 255
-0.304470 -0.308892 0.615761 255 255 255
2.902291 -0.140940 -0.660587 255 255 255
10.263819 7.001502 3.791334 255 255 255
4.224598 0.942015 0.548151 255 255 255
2.943860 -0.718220 0.122106 255 255 255
27.948261 18.396574 6.953416 255 255 255
0.006185 0.012944 2.074616 255 255 255
-0.274440 0.053195 0.858908 255 255 255
4.210782 1.151551 2.118089 255 255 255
4.429857 0.572683 0.216027 255 255 255
-0.525605 -0.457788 0.040630 255 255 255
-0.280728 0.127392 0.800528 255 255 255
-0.180664 0.157427 0.661659 255 255 255
0.696211 0.035813 0.342497 255 255 255
5.099153 0.774674 2.914012 255 255 255
3.452050 -0.229409 5.441315 255 255 255
3.400937 0.595321 -0.636104 255 255 255
-0.259793 0.139622 0.924255 255 255 255
-0.282695 0.083948 0.953740 255 255 255
5.187745 0.198699 1.586460 255 255 255
-0.291777 -0.316843 0.777032 255 255 255
4.493411 1.121451 1.243998 255 255 255
-0.125272 -0.366393 2.257954 255 255 255
-0.306471 0.039866 0.616802 255 255 255
5.180242 0.195224 2.319163 255 255 255
-0.330286 -0.301829 0.513448 255 255 255
5.709669 -0.493954 2.411023 255 255 255
3.449114 -0.070231 -0.754732 255 255 255
-0.323376 -0.316030 0.617638 255 255 255
4.865620 0.568184 0.571228 255 255 255
0.708638 1.134267 1.682597 255 255 255
0.514973 0.802039 1.188911 255 255 255
-0.306267 0.047262 0.654649 255 255 255
-0.309966 -0.036923 0.542962 255 255 255
3.808771 0.268949 4.319702 255 255 255
0.657280 0.751589 2.521875 255 255 255
-0.306819 0.509976 0.605277 255 255 255
1.512049 -0.272052 -0.736847 255 255 255
0.882267 -0.012091 1.273444 255 255 255
-0.286935 0.041244 0.772065 255 255 255
1.495869 -0.269722 -0.775898 255 255 255
5.346532 -0.788583 0.532409 255 255 255
-0.293561 0.294039 0.700595 255 255 255
1.953270 0.163905 -0.594444 255 255 255
4.972679 -0.830781 1.819897 255 255 255
0.472709 -0.729689 2.314359 255 255 255
0.580009 0.329953 -0.569901 255 255 255
-0.260989 0.234516 0.990033 255 255 255
-0.276250 -0.304299 0.763089 255 255 255
5.152115 0.231336 1.565505 255 255 255
1.001240 -0.111879 1.457795 255 255 255
-0.377428 -0.221709 -0.065189 255 255 255
5.056460 0.534046 1.389623 255 255 255
5.550284 0.299488 2.540077 255 255 255
-0.326499 -0.267264 0.482276 255 255 255
4.468970 0.275077 -0.838949 255 255 255
-0.368640 -0.207672 0.102764 255 255 255
3.096080 -0.782666 1.945162 255 255 255
3.334977 -0.836677 3.662165 255 255 255
1.883110 0.966175 -0.518019 255 255 255
5.694495 -0.908295 2.855049 255 255 255
-0.294855 0.410811 0.563344 255 255 255
-0.385255 -0.243755 0.035905 255 255 255
-0.299719 -0.278895 0.386577 255 255 255
2.434361 -0.091906 -0.749464 255 255 255
-0.442160 0.135388 1.533737 255 255 255
2.499406 0.491788 4.128526 255 255 255
-0.380442 -0.249942 0.031593 255 255 255
3.208839 0.235612 -0.662696 255 255 255
0.877211 -0.011689 1.296289 255 255 255
-0.321560 -0.289985 0.616700 255 255 255
0.707076 -0.839437 4.216953 255 255 255
0.571308 0.590752 2.661740 255 255 255
4.994264 0.372352 0.148968 255 255 255
-0.255827 0.023002 0.974691 255 255 255
4.915386 0.640878 -0.237813 255 255 255
-0.519647 -0.410112 0.175520 255 255 255
4.285419 0.700998 2.028960 255 255 255
2.567265 0.566862 1.212546 255 255 255
2.727873 -0.653299 0.169937 255 255 255
-0.138852 -0.609539 -0.375724 255 255 255
1.309030 0.548238 -0.331445 255 255 255
5.204544 0.259874 0.013467 255 255 255
1.866859 -0.344473 -1.029691 255 255 255
5.729227 0.340059 2.610470 255 255 255
2.545119 0.482553 -0.683072 255 255 255
5.114285 0.279221 2.185554 255 255 255
-0.270404 -0.654785 0.306511 255 255 255
1.266417 -0.688985 2.088820 255 255 255
2.235408 -0.118500 4.983844 255 255 255
6.792324 4.771181 2.155564 255 255 255
2.568438 -0.810954 3.235460 255 255 255
2.029342 -0.700297 0.430732 255 255 255
3.027822 -0.224176 -0.727527 255 255 255
-0.318731 -0.256753 0.403226 255 255 255
-0.297933 -0.320579 0.767054 255 255 255
-0.269959 -0.655212 0.307546 255 255 255
0.850030 1.245465 1.870842 255 255 255
-1.386707 0.320384 5.050027 255 255 255
2.830461 0.629587 0.983098 255 255 255
-0.290265 0.081312 0.759501 255 255 255
-0.239017 0.700610 1.155632 255 255 255
4.160400 0.147274 -0.682087 255 255 255
4.065572 0.007338 -0.852035 255 255 255
-0.203260 -0.306265 0.462651 255 255 255
-4.498411 13.460720 15.135049 255 255 255
0.656913 -0.112779 1.940684 255 255 255
5.187869 0.302073 0.624239 255 255 255
0.647491 0.332652 -0.590833 255 255 255
-0.295876 0.050981 0.731889 255 255 255
-0.389434 -0.221815 -0.180280 255 255 255
-0.203237 0.387387 0.651990 255 255 255
2.102005 -0.280613 -0.790088 255 255 255
-0.262493 0.039689 0.916687 255 255 255
0.221052 -0.678347 0.561528 255 255 255
1.512301 -0.287030 -0.769350 255 255 255
2.773152 -0.362185 -0.906207 255 255 255
-0.303243 0.040472 0.688764 255 255 255
-0.303002 -0.300429 0.782170 255 255 255
0.881905 -0.026962 1.280270 255 255 255
5.201502 0.258288 0.014653 255 255 255
-0.378020 -0.200940 -0.141542 255 255 255
3.202973 -0.792495 1.945415 255 255 255
2.116719 0.006906 4.925726 255 255 255
-0.296522 0.452335 0.588551 255 255 255
4.571808 0.585540 0.186799 255 255 255
3.484760 0.985780 3.991752 255 255 255
0.188649 0.883800 1.771723 255 255 255
4.441205 -0.858785 1.758797 255 255 255
3.149925 0.381626 4.185994 255 255 255
4.949287 -0.814312 1.654485 255 255 255
4.021550 -0.772189 0.158714 255 255 255
2.457541 0.790504 1.041204 255 255 255
3.088041 0.304784 -0.610238 255 255 255
5.123533 0.499584 -0.236690 255 255 255
0.958816 -0.012910 2.102593 255 255 255
0.749429 0.070592 1.149099 255 255 255
4.376355 0.655511 2.145802 255 255 255
4.662147 0.504356 1.955130 255 255 255
4.960236 0.591779 1.060437 255 255 255
-0.344288 -0.208050 0.088247 255 255 255
4.092049 0.755621 0.462899 255 255 255
-0.261211 0.138834 0.924255 255 255 255
0.590823 0.017739 0.270156 255 255 255
5.406267 -0.632644 -0.388533 255 255 255
0.866571 -0.162305 1.167241 255 255 255
1.271141 0.777496 -0.471271 255 255 255
2.262667 0.270300 -0.645826 255 255 255
2.044551 0.284869 3.398337 255 255 255
-0.254045 -0.294600 1.033751 255 255 255
2.261768 0.149191 -0.435530 255 255 255
5.372702 -0.783020 0.541988 255 255 255
4.856184 0.100640 4.357810 255 255 255
4.743790 -0.830020 -0.071594 255 255 255
0.402800 0.669428 -0.269839 255 255 255
5.209862 0.516779 1.803940 255 255 255
0.722012 -0.096809 1.614126 255 255 255
2.802386 0.892347 -0.857890 255 255 255
-0.276435 0.080510 0.842522 255 255 255
-0.260244 0.148363 0.936096 255 255 255
-0.241293 -0.342786 1.664712 255 255 255
-0.287361 0.032028 0.803519 255 255 255
2.324806 0.646815 -0.635713 255 255 255
-0.094644 0.418444 1.977472 255 255 255
2.881635 1.009716 0.970121 255 255 255
5.426728 -0.026422 3.724866 255 255 255
0.099734 0.001652 3.365844 255 255 255
-0.356913 -0.348974 1.053600 255 255 255
-0.275156 0.045065 0.856875 255 255 255
0.743098 -0.758297 0.637537 255 255 255
-0.267868 0.079220 0.984924 255 255 255
4.757673 0.957787 2.938225 255 255 255
4.622370 1.216171 -0.658498 255 255 255
-0.240943 -0.468554 0.707126 255 255 255
0.574023 0.706990 -0.290533 255 255 255
4.162973 0.274566 -0.779165 255 255 255
2.457720 -0.319440 -0.814092 255 255 255
-0.263766 0.104221 0.900633 255 255 255
2.582502 0.138490 -0.715521 255 255 255
5.179018 -1.656183 2.413172 255 255 255
5.570587 -0.724085 2.282379 255 255 255
0.867354 -0.028065 1.251721 255 255 255
0.636704 -0.893987 0.878932 255 255 255
-0.029607 -0.342247 2.327732 255 255 255
1.332902 0.439871 -0.554832 255 255 255
1.493036 -0.424258 3.556354 255 255 255
-0.157784 0.380233 3.190697 255 255 255
2.309152 -0.090636 -0.665794 255 255 255
2.527941 0.688301 4.267934 255 255 255
0.840822 -0.004947 1.864068 255 255 255
2.193484 0.757044 -0.604153 255 255 255
3.214547 -0.566954 -1.112487 255 255 255
3.063700 0.154601 -0.605465 255 255 255
-0.253853 0.206031 0.968816 255 255 255
2.642083 0.566203 1.234092 255 255 255
3.816710 -0.730922 0.148380 255 255 255
-0.513517 -0.387289 0.201801 255 255 255
-0.238039 0.019127 1.132077 255 255 255
-0.311322 0.118809 0.650824 255 255 255
1.997576 0.554172 4.736443 255 255 255
0.074524 1.017966 1.868883 255 255 255
4.518080 0.113791 4.327899 255 255 255
1.508712 -0.151387 5.018145 255 255 255
-0.275435 0.030229 0.984677 255 255 255
0.572773 0.655730 2.024268 255 255 255
15.140750 -2.966879 -0.052151 255 255 255
2.284112 -0.765724 2.186890 255 255 255
-0.240278 0.168704 1.005062 255 255 255
3.740866 -0.710990 0.137207 255 255 255
-0.319745 -0.311688 0.618527 255 255 255
5.341165 0.026850 3.543518 255 255 255
5.199521 0.277683 0.128956 255 255 255
0.409932 0.674992 -0.270683 255 255 255
1.418623 -0.763691 2.237612 255 255 255
5.359429 -0.740002 0.790881 255 255 255
-0.302599 0.049219 0.694105 255 255 255
5.790796 -0.501111 2.910449 255 255 255
-0.334715 -0.239141 0.448753 255 255 255
1.307422 0.762047 2.867257 255 255 255
4.913165 0.339049 -0.022903 255 255 255
4.064442 0.316771 3.517945 255 255 255
-0.408891 -0.223979 -0.209401 255 255 255
0.897189 -0.023702 1.992854 255 255 255
0.852415 1.247541 1.894875 255 255 255
0.181969 0.442602 1.768655 255 255 255
2.129498 -0.578706 4.888487 255 255 255
0.816674 -0.025153 1.821830 255 255 255
-0.275902 0.061830 0.856236 255 255 255
-0.361758 -0.201162 0.263784 255 255 255
2.537227 0.635633 4.232066 255 255 255
-0.395084 -0.557036 -0.239386 255 255 255
5.824347 -0.530446 2.320103 255 255 255
1.354562 -0.743479 2.215889 255 255 255
2.279617 -0.763847 2.201711 255 255 255
2.647285 -0.724259 0.555254 255 255 255
-0.088540 0.390320 1.967300 255 255 255
-0.280183 -0.487960 0.603716 255 255 255
4.807605 0.577263 1.043324 255 255 255
-0.267196 0.099849 0.846847 255 255 255
4.242315 -0.191864 -0.797687 255 255 255
3.923168 -0.701109 0.108842 255 255 255
5.205907 0.455126 0.368004 255 255 255
1.528608 0.330295 3.029267 255 255 255
4.952456 0.488114 1.384102 255 255 255
4.384964 0.443592 1.102423 255 255 255
-0.510178 -1.105833 1.584740 255 255 255
-0.265618 0.478548 0.899085 255 255 255
-0.221029 0.024638 0.982473 255 255 255
0.183999 0.431252 1.745050 255 255 255
2.919796 -0.725216 0.274534 255 255 255
5.059517 0.332761 1.487258 255 255 255
-0.291921 0.292627 0.699332 255 255 255
0.193264 0.537731 2.149421 255 255 255
-0.330416 -0.235053 0.445989 255 255 255
-0.265584 -0.320213 0.759111 255 255 255
0.158555 0.068838 3.489315 255 255 255
-0.263601 0.437839 0.898228 255 255 255
-0.309931 0.077314 0.647619 255 255 255
5.588068 -0.868189 2.266278 255 255 255
4.742506 0.167768 -0.845259 255 255 255
3.034256 0.705345 0.276391 255 255 255
-0.259875 0.146527 0.925517 255 255 255
3.366513 -0.877852 3.800264 255 255 255
0.130039 0.602404 1.298604 255 255 255
-0.272720 0.081738 0.849380 255 255 255
-0.408101 -0.435577 0.755186 255 255 255
2.306704 0.721093 4.232394 255 255 255
-0.926647 -0.736717 3.264735 255 255 255
2.583420 -0.007714 4.851631 255 255 255
4.528198 0.544890 -0.018531 255 255 255
3.858735 0.249868 -0.546853 255 255 255
-0.313229 0.038793 0.620821 255 255 255
-0.236419 0.054881 0.713017 255 255 255
-0.364486 -0.194532 0.095855 255 255 255
-0.287958 0.290134 0.739773 255 255 255
3.500736 0.100186 4.293738 255 255 255
4.877971 0.240646 -0.541755 255 255 255
-0.295050 0.481468 0.569540 255 255 255
0.210923 -0.727911 0.464839 255 255 255
-0.111929 -0.158999 1.950490 255 255 255
2.878053 -0.720432 0.143646 255 255 255
3.819407 -0.731704 -0.000803 255 255 255
-0.122246 -0.635586 -0.178261 255 255 255
-0.045370 -0.495823 2.444540 255 255 255
4.433225 0.755773 1.934308 255 255 255
3.181719 -0.789092 2.090302 255 255 255
-0.273717 -0.242166 0.395344 255 255 255
-0.384898 -0.202142 -0.172428 255 255 255
4.557117 0.397872 -0.149495 255 255 255
-0.377911 0.047051 0.886894 255 255 255
1.468934 0.000693 4.942752 255 255 255
-0.372781 -0.251978 0.022311 255 255 255
-0.262473 0.058011 0.942447 255 255 255
0.914526 0.605954 1.363922 255 255 255
4.925788 0.282858 -0.308936 255 255 255
-0.303043 -0.339594 0.639440 255 255 255
2.941076 1.006323 0.426856 255 255 255
-0.891299 -0.713590 3.344981 255 255 255
-0.936663 -0.716030 2.615839 255 255 255
1.883148 -0.741710 0.280582 255 255 255
-0.022808 -0.596491 -0.099487 255 255 255
-0.320040 -0.273232 0.543428 255 255 255
4.794567 -0.763281 0.117547 255 255 255
-0.976096 -0.740157 2.661200 255 255 255
4.738371 -0.206841 -0.862942 255 255 255
4.012002 0.488970 3.900672 255 255 255
-0.068647 -0.363675 2.324638 255 255 255
-0.362049 -0.214480 -0.054452 255 255 255
-0.257118 0.199509 0.960874 255 255 255
-0.318129 -0.238072 0.485608 255 255 255
-0.418084 -0.224730 -0.210264 255 255 255
2.621764 -0.719174 0.563159 255 255 255
3.547323 0.585342 4.028656 255 255 255
5.173405 0.203034 1.585906 255 255 255
-0.281417 -0.413695 0.621674 255 255 255
3.109964 -0.765489 1.905895 255 255 255
4.777827 0.224703 1.062335 255 255 255
4.922432 -0.802751 1.648904 255 255 255
0.182817 0.930494 1.463198 255 255 255
2.711898 0.725162 4.087651 255 255 255
2.588859 -0.504299 -0.969214 255 255 255
5.062932 -0.728420 -1.071630 255 255 255
1.300339 0.601732 2.818380 255 255 255
3.980260 -0.764194 0.155660 255 255 255
-0.072503 -0.372226 2.340991 255 255 255
3.015924 0.280671 -0.581666 255 255 255
-0.247323 0.466554 0.795273 255 255 255
5.749140 -0.918473 2.837917 255 255 255
4.187406 0.132609 -0.766636 255 255 255
0.440591 0.733670 -0.196646 255 255 255
-0.248568 0.027785 1.124068 255 255 255
-0.515730 -0.454683 0.178846 255 255 255
1.115130 0.098013 2.242857 255 255 255
-0.246111 -0.354379 0.694281 255 255 255
3.746619 -0.745525 1.733840 255 255 255
3.006311 0.074051 -0.594370 255 255 255
-0.103899 -0.173258 1.939371 255 255 255
1.354237 -0.738991 2.193274 255 255 255
-0.250455 -0.353700 0.696270 255 255 255
1.118586 1.280822 1.286191 255 255 255
4.420433 -0.785616 -1.585211 255 255 255
-0.438560 -0.623889 -0.232685 255 255 255
5.355777 0.477476 0.744028 255 255 255
-0.245268 -0.412701 0.728524 255 255 255
0.072215 1.021978 1.877945 255 255 255
3.459432 0.455234 -0.717462 255 255 255
2.956937 -0.148251 -0.616607 255 255 255
4.156945 -0.776219 -0.045560 255 255 255
5.407888 -0.379890 0.282245 255 255 255
4.055802 -0.822658 3.473337 255 255 255
5.564472 -0.693923 2.263777 255 255 255
-0.075873 0.439371 1.787256 255 255 255
2.208951 -0.695958 0.729613 255 255 255
-0.282087 -0.413703 0.741499 255 255 255
1.140055 0.262936 2.804492 255 255 255
-0.070506 0.445827 1.796800 255 255 255
5.159708 0.206318 1.582523 255 255 255
5.424387 0.002201 0.275449 255 255 255
-0.282303 0.029548 0.806160 255 255 255
-0.245623 0.023839 1.141411 255 255 255
3.863586 -0.416097 -1.017339 255 255 255
-0.862772 -0.708039 3.297633 255 255 255
3.987646 -0.166595 -0.728604 255 255 255
-0.319690 -0.258157 0.379125 255 255 255
-0.294981 -0.317181 0.768236 255 255 255
0.815538 -0.026164 1.826581 255 255 255
-0.058428 -0.349818 2.303319 255 255 255
-0.076206 -0.168733 1.919361 255 255 255
2.879325 0.363048 4.020901 255 255 255
5.054801 0.313782 -0.236147 255 255 255
-0.261992 0.145158 0.928519 255 255 255
0.200927 -0.047518 3.876771 255 255 255
-0.335452 -0.209412 0.386021 255 255 255
2.589030 0.370986 4.049250 255 255 255
3.411942 -0.854885 3.716646 255 255 255
-0.089250 0.411574 1.960612 255 255 255
0.150422 0.464723 2.098893 255 255 255
0.072948 -0.638308 3.560075 255 255 255
4.900499 0.550776 1.141855 255 255 255
1.025837 -0.611737 0.463494 255 255 255
0.796418 -0.196219 1.836823 255 255 255
2.774465 -0.585232 4.792110 255 255 255
3.848718 -0.176867 -0.742502 255 255 255
4.276169 0.750955 1.517172 255 255 255
-0.256620 0.040497 0.997740 255 255 255
1.416275 -0.077163 2.890795 255 255 255
-0.279966 0.052492 0.807269 255 255 255
-0.292691 0.343111 0.534557 255 255 255
-0.283978 0.069550 0.786756 255 255 255
-0.374216 -0.251999 0.020558 255 255 255
1.997100 -0.080560 -0.632380 255 255 255
-0.297803 -0.238135 0.395279 255 255 255
-0.355956 -0.201732 0.263534 255 255 255
0.471129 0.724423 -0.124654 255 255 255
-0.349751 -0.238165 0.254855 255 255 255
-0.313983 -0.266438 0.320460 255 255 255
3.066699 0.299572 -0.606368 255 255 255
1.847898 0.960010 4.722920 255 255 255
-0.332614 -0.246622 0.439817 255 255 255
-0.259089 -0.318078 0.761857 255 255 255
5.501942 0.277853 2.543117 255 255 255
-0.246820 -0.417493 0.731850 255 255 255
3.165639 0.392430 -0.663665 255 255 255
-0.398549 -0.258257 0.037201 255 255 255
2.693747 -0.802911 3.329413 255 255 255
-0.167887 -0.420324 2.337147 255 255 255
5.438058 -0.035547 3.043282 255 255 255
4.757724 0.217323 1.061695 255 255 255
-0.303113 0.116140 0.649592 255 255 255
3.754727 1.098541 3.683191 255 255 255
-0.838463 -0.468049 0.689059 255 255 255
-0.275174 0.114205 0.852780 255 255 255
4.995803 0.506261 1.416899 255 255 255
5.046706 0.423966 0.702556 255 255 255
-0.388710 -0.216041 -0.156235 255 255 255
-0.319098 -0.287935 0.615418 255 255 255
-0.426394 -0.294238 0.014759 255 255 255
-0.392084 -0.251140 0.001010 255 255 255
-0.182484 -0.379285 2.358058 255 255 255
-0.418451 -0.277997 -0.068086 255 255 255
0.865239 0.005521 1.284551 255 255 255
2.259382 0.381037 3.256856 255 255 255
4.873100 -0.362087 -1.006013 255 255 255
4.110253 -0.817966 1.866890 255 255 255
4.859854 -0.020878 -0.359793 255 255 255
0.703079 0.038722 0.334785 255 255 255
0.068998 0.579530 1.869094 255 255 255
4.765434 0.327682 0.210005 255 255 255
-0.058000 0.684812 1.829290 255 255 255
4.398741 1.144498 3.782744 255 255 255
2.685004 0.064231 -0.696298 255 255 255
2.349174 -0.783362 2.215235 255 255 255
2.288450 -0.762657 2.196262 255 255 255
1.558234 0.190428 -0.548631 255 255 255
5.219874 0.538038 3.512415 255 255 255
-0.277115 -0.514685 0.605776 255 255 255
-0.241297 0.191605 0.911106 255 255 255
-0.055491 -0.185491 2.089800 255 255 255
3.168237 -0.785915 1.949379 255 255 255
4.095454 -0.813277 1.953954 255 255 255
2.190014 0.504245 -0.615114 255 255 255
0.788871 -0.143086 1.144900 255 255 255
-0.266602 -0.404999 0.602260 255 255 255
0.176560 0.440345 1.763095 255 255 255
2.950298 0.675915 1.031221 255 255 255
4.374145 0.684316 2.186257 255 255 255
-0.287198 0.128812 0.736947 255 255 255
0.186841 0.662136 1.766684 255 255 255
3.568848 -0.295192 -0.824071 255 255 255
0.742683 -0.719583 1.899230 255 255 255
0.798502 0.021084 0.378402 255 255 255
3.173654 0.415795 4.208135 255 255 255
1.411071 -0.743724 2.330953 255 255 255
-0.233102 0.229857 1.138769 255 255 255
0.476150 -0.721967 2.303672 255 255 255
4.432936 0.073740 -0.772903 255 255 255
-0.294510 0.072393 0.728858 255 255 255
-0.324104 -0.232457 0.276039 255 255 255
0.583312 0.651581 2.696933 255 255 255
4.917030 0.243844 -0.249407 255 255 255
5.185804 0.195378 1.572069 255 255 255
-0.259800 0.203335 0.968316 255 255 255
2.880172 -0.514380 -1.019587 255 255 255
-0.371598 -0.183889 0.089968 255 255 255
0.205466 0.932985 1.960970 255 255 255
1.403495 -0.579899 0.369010 255 255 255
3.940069 0.109902 4.432599 255 255 255
0.794976 -0.193498 1.827768 255 255 255
-0.313759 -0.284394 0.433485 255 255 255
8.249774 -1.641066 3.497016 255 255 255
4.538801 0.392539 -0.137908 255 255 255
3.413907 -0.367523 -0.869418 255 255 255
-0.046378 -0.335094 2.262490 255 255 255
2.499589 -0.827967 3.869182 255 255 255
2.701845 -0.812921 3.329142 255 255 255
5.143927 0.447949 0.686590 255 255 255
1.886150 0.584858 4.888193 255 255 255
0.929585 0.298351 1.434327 255 255 255
-0.254516 0.205763 0.968511 255 255 255
-0.343620 -0.205966 0.087935 255 255 255
3.657038 0.050375 -0.702123 255 255 255
2.301084 0.985208 -0.598630 255 255 255
-0.098172 0.427129 2.025507 255 255 255
0.038389 0.346542 1.886708 255 255 255
-0.322121 -0.264066 0.474693 255 255 255
4.327839 -0.884981 3.725582 255 255 255
-0.285969 0.069805 0.789952 255 255 255
0.092859 0.369375 1.849653 255 255 255
8.397014 6.688494 2.672487 255 255 255
-0.282059 0.051606 0.804849 255 255 255
2.566902 0.808460 1.255780 255 255 255
0.181250 0.624255 1.862845 255 255 255
4.988560 0.292197 0.356030 255 255 255
4.907351 0.520306 2.421057 255 255 255
0.988416 0.419396 4.752228 255 255 255
1.515943 -0.289172 -0.769032 255 255 255
-0.257384 0.167041 0.948233 255 255 255
-0.307024 0.074616 0.628721 255 255 255
-0.247355 -0.356321 0.695071 255 255 255
-0.342848 -0.207815 0.086044 255 255 255
-0.280267 0.029881 0.825743 255 255 255
-0.418348 -0.278932 -0.066816 255 255 255
2.203156 -0.702566 1.079640 255 255 255
-0.285191 0.503219 0.612999 255 255 255
-0.134022 -0.473768 -0.373959 255 255 255
-0.261525 -0.436613 0.753760 255 255 255
-0.325428 -0.236791 0.258020 255 255 255
1.935957 0.073853 -0.615961 255 255 255
2.853853 -0.785027 2.735235 255 255 255
-0.255335 0.202300 0.860791 255 255 255
-0.378377 -0.200651 -0.147864 255 255 255
-0.284661 -0.412149 0.622054 255 255 255
0.084665 0.397924 2.110162 255 255 255
-0.316881 -0.273828 0.420278 255 255 255
-0.282694 0.127702 0.800676 255 255 255
-0.361966 0.037367 0.242029 255 255 255
2.429798 -0.040605 -0.740384 255 255 255
5.390875 -0.786786 0.832431 255 255 255
1.185293 -0.700563 0.561803 255 255 255
-0.321294 0.476179 0.587679 255 255 255
-0.016106 -0.010337 2.541270 255 255 255
-0.291402 0.032692 0.744463 255 255 255
-0.298421 0.447686 0.586950 255 255 255
-0.275301 0.247536 0.832546 255 255 255
4.840075 0.896310 4.477560 255 255 255
-0.320314 -0.274057 0.409126 255 255 255
-0.356923 -0.207984 0.275444 255 255 255
1.270402 -0.022676 -0.528526 255 255 255
5.562452 -0.870942 3.243107 255 255 255
-0.259340 0.133343 0.924439 255 255 255
2.902047 -0.139078 -0.672335 255 255 255
-0.561539 -0.395909 0.017040 255 255 255
-0.298804 0.049694 0.691919 255 255 255
1.309756 -0.021768 1.719147 255 255 255
3.950252 0.041113 -0.738259 255 255 255
-0.311970 -0.241659 0.474794 255 255 255
2.831558 -0.128641 -0.648493 255 255 255
0.006937 -0.673439 0.728678 255 255 255
-0.296656 -0.319555 0.762727 255 255 255
1.433703 -0.796487 2.385155 255 255 255
-0.292967 -0.390532 0.717796 255 255 255
-0.305288 0.097199 0.650758 255 255 255
3.178271 0.143933 -0.652241 255 255 255
5.625397 -0.442152 2.426375 255 255 255
4.595971 1.133414 1.891574 255 255 255
-0.261890 -0.379992 1.678611 255 255 255
-0.243358 -0.390487 0.735915 255 255 255
-0.356727 -0.316746 0.464366 255 255 255
-0.273002 0.208934 0.842093 255 255 255
2.937070 -0.718102 0.287936 255 255 255
-0.161716 -0.411976 2.331979 255 255 255
-0.064615 -0.360142 2.345673 255 255 255
5.016459 0.401802 2.554852 255 255 255
-0.096366 0.422923 2.023103 255 255 255
3.268774 -0.184810 4.743976 255 255 255
-0.487244 -0.461439 0.299875 255 255 255
0.072435 1.051349 1.925916 255 255 255
5.183436 0.116641 1.314570 255 255 255
-0.251620 -0.598194 0.765069 255 255 255
2.944370 -0.717215 0.105782 255 255 255
4.363615 0.682847 2.197400 255 255 255
0.524920 -0.731296 2.431404 255 255 255
5.320510 0.349468 0.283220 255 255 255
2.552501 -0.818784 3.209560 255 255 255
4.749850 1.016477 1.538467 255 255 255
-0.374073 -0.201431 0.090102 255 255 255
-0.096845 -0.183663 1.932848 255 255 255
-0.100791 -0.156463 1.854464 255 255 255
-0.085685 -0.185085 1.918146 255 255 255
5.364478 0.254320 0.828555 255 255 255
0.238873 -0.674815 0.689823 255 255 255
0.075234 1.097628 1.916265 255 255 255
-0.343763 -0.226646 0.247811 255 255 255
2.853434 0.335933 4.237931 255 255 255
1.858125 0.163401 -0.597889 255 255 255
-0.178411 -0.444539 2.326969 255 255 255
2.551534 0.517461 4.127053 255 255 255
2.249984 0.902739 3.907625 255 255 255
2.574179 -0.850644 3.913242 255 255 255
1.843201 0.577101 -0.470647 255 255 255
2.199710 1.065204 4.240105 255 255 255
-0.379118 -0.205662 -0.147605 255 255 255
2.589354 0.970135 4.338863 255 255 255
0.062763 -0.344165 2.735524 255 255 255
0.708455 0.019585 0.375169 255 255 255
3.320796 0.443457 4.115292 255 255 255
0.268423 0.638320 4.615581 255 255 255
3.397802 0.186117 4.116560 255 255 255
0.045401 0.384822 1.880819 255 255 255
4.993404 0.614161 0.126567 255 255 255
0.188111 1.049763 1.775147 255 255 255
2.372657 -0.714288 1.152726 255 255 255
-0.265392 0.482911 0.897859 255 255 255
-0.239211 -0.252088 0.000481 255 255 255
1.806610 0.420457 3.644099 255 255 255
0.649729 1.250029 -0.463284 255 255 255
2.076442 -0.709872 0.429003 255 255 255
-0.315795 -0.245339 0.491065 255 255 255
0.151667 0.212506 2.123090 255 255 255
4.768143 0.314396 0.032025 255 255 255
3.869276 -0.741652 0.107110 255 255 255
-0.502799 -0.447941 0.188184 255 255 255
0.566681 0.112844 -0.621404 255 255 255
-0.326868 -0.654635 0.553853 255 255 255
5.134935 0.494466 2.134634 255 255 255
-0.273514 0.102692 0.855048 255 255 255
-0.266511 0.109169 0.898540 255 255 255
-0.236007 -0.662671 2.118378 255 255 255
1.766083 -0.036167 -0.521505 255 255 255
-0.516739 -0.402663 0.129928 255 255 255
-0.373252 -0.251682 0.021699 255 255 255
4.389122 0.743402 1.956331 255 255 255
-0.305027 -0.272709 0.329503 255 255 255
-0.261814 0.041602 0.842695 255 255 255
2.570585 -0.870143 3.930188 255 255 255
-0.396860 -0.237114 -0.202982 255 255 255
-0.314869 0.038144 0.620498 255 255 255
0.422134 0.550804 1.247272 255 255 255
-0.266719 0.236952 0.886662 255 255 255
3.456526 -0.847211 3.825406 255 255 255
5.469112 -0.016322 3.661050 255 255 255
-0.243589 -0.417570 0.725884 255 255 255
2.960707 -0.391861 -0.800133 255 255 255
-0.235211 0.019276 1.129982 255 255 255
-0.236004 -0.396392 0.717070 255 255 255
5.155436 0.437408 1.548955 255 255 255
-0.249775 -0.343397 0.647050 255 255 255
-0.307330 0.041944 0.650941 255 255 255
4.378349 0.423166 3.662625 255 255 255
1.601028 -0.149852 -0.532775 255 255 255
4.153659 0.273313 3.484898 255 255 255
4.633375 0.429567 1.065006 255 255 255
-0.276437 -0.312751 0.610379 255 255 255
4.599546 0.426909 -0.174071 255 255 255
-0.233620 -0.430275 0.653839 255 255 255
4.664073 -0.960019 3.482506 255 255 255
0.618395 0.027828 0.119161 255 255 255
-0.502141 -0.422999 0.318634 255 255 255
4.140623 -0.185494 -0.776566 255 255 255
-0.367430 -0.233206 -0.054559 255 255 255
-0.480347 -0.414979 0.315797 255 255 255
0.464855 0.447848 2.011116 255 255 255
-0.051736 -0.031499 2.075533 255 255 255
-0.261524 0.237709 0.979369 255 255 255
-0.252659 0.192547 0.828976 255 255 255
-0.121676 -0.309781 1.657711 255 255 255
-0.321023 -0.276980 0.436735 255 255 255
4.262584 0.281238 4.352852 255 255 255
4.838407 0.392490 4.051548 255 255 255
2.139864 -0.724217 0.403925 255 255 255
-0.305370 0.076494 0.648237 255 255 255
0.110658 0.363205 1.833581 255 255 255
0.632981 0.764934 -0.456180 255 255 255
-0.233833 0.017168 1.134051 255 255 255
-0.289205 0.292135 0.744748 255 255 255
-0.301906 -0.240890 0.397066 255 255 255
2.190802 0.053811 -0.699685 255 255 255
-0.284694 -0.385525 0.600763 255 255 255
0.043096 0.355724 1.885242 255 255 255
-0.280735 0.056106 0.796966 255 255 255
4.597701 0.406737 -0.013915 255 255 255
4.070353 0.289550 4.436492 255 255 255
4.728816 -0.767002 0.035601 255 255 255
-0.338416 -0.600642 0.504473 255 255 255
-0.014595 1.207472 1.775950 255 255 255
2.151668 0.068762 -0.654176 255 255 255
-0.270916 0.109467 0.850109 255 255 255
-0.270469 0.057437 0.857567 255 255 255
-0.262242 0.232260 0.884160 255 255 255
-0.300470 0.039072 0.697228 255 255 255
-0.032608 -0.283823 2.485610 255 255 255
0.594464 -0.059075 4.628221 255 255 255
0.163121 0.470398 1.840172 255 255 255
-0.280605 0.457736 0.714220 255 255 255
0.063540 -0.427468 3.292173 255 255 255
-0.281313 0.127783 0.799495 255 255 255
0.048322 -0.317229 2.628087 255 255 255
0.188498 -0.080270 4.112235 255 255 255
0.865609 -0.010740 1.280117 255 255 255
0.579373 0.649024 2.702408 255 255 255
1.031838 0.061373 1.571764 255 255 255
5.393553 -0.812332 0.842945 255 255 255
5.130360 0.502922 -0.242355 255 255 255
4.465007 0.542133 0.571156 255 255 255
0.063510 -0.560979 3.051436 255 255 255
-0.267723 -0.197286 0.551010 255 255 255
0.076466 -0.271539 2.399198 255 255 255
1.199914 0.170378 2.656718 255 255 255
0.113113 0.382709 1.918643 255 255 255
0.098544 -0.669236 3.831862 255 255 255
0.502899 -0.730842 2.459283 255 255 255
-0.251951 0.240842 0.980506 255 255 255
5.535115 0.798976 3.679152 255 255 255
0.640101 0.685060 0.132059 255 255 255
0.838146 -0.025517 1.213128 255 255 255
2.616985 -0.712956 0.553970 255 255 255
2.499732 -0.839435 3.873785 255 255 255
1.610927 -0.057659 -0.517748 255 255 255
5.535663 0.034986 3.090832 255 255 255
4.629138 1.164218 1.947587 255 255 255
4.566134 0.873072 1.252534 255 255 255
2.489306 0.625131 4.230535 255 255 255
0.237224 -0.665282 0.684804 255 255 255
-0.033447 -0.277403 2.418235 255 255 255
4.727301 0.245071 -0.797735 255 255 255
2.351676 -0.805676 2.171712 255 255 255
0.078264 0.505944 2.022860 255 255 255
0.043665 0.349494 1.863349 255 255 255
2.777952 -0.608428 4.798028 255 255 255
2.534611 -0.841450 3.920485 255 255 255
2.674322 -0.408673 -0.863123 255 255 255
5.023805 0.292169 0.696684 255 255 255
-0.248494 0.201061 1.011630 255 255 255
-1.847066 -0.554927 2.470472 255 255 255
-0.282619 0.512757 0.690224 255 255 255
0.573626 0.582495 0.169968 255 255 255
4.853911 0.558627 1.975249 255 255 255
-0.309774 -0.242222 0.394307 255 255 255
-0.280926 0.178557 0.746727 255 255 255
2.814956 0.432928 -0.541346 255 255 255
4.588078 0.372983 -0.020373 255 255 255
1.870841 0.301711 -0.581414 255 255 255
2.215898 0.260422 -0.683096 255 255 255
0.799796 0.010266 0.623838 255 255 255
-0.268969 0.101982 0.904235 255 255 255
-0.246086 0.171431 1.000794 255 255 255
-0.232228 0.214412 1.133853 255 255 255
4.237386 0.270964 4.284553 255 255 255
2.767395 -0.509801 -0.879398 255 255 255
3.202868 -0.813954 2.106821 255 255 255
-0.334369 -0.243551 0.485603 255 255 255
3.391391 0.182798 4.104859 255 255 255
3.375019 0.648210 0.272219 255 255 255
3.520069 -0.513161 -0.990354 255 255 255
-0.072000 0.658109 1.789149 255 255 255
3.007224 0.149144 -0.591915 255 255 255
1.151968 0.098938 1.739712 255 255 255
-0.289914 0.436128 0.697569 255 255 255
4.206559 0.134137 -0.731324 255 255 255
2.320826 -0.702892 0.594892 255 255 255
2.208923 -0.711959 0.730250 255 255 255
3.229268 0.592955 0.196247 255 255 255
-0.308039 0.512978 0.460744 255 255 255
3.947039 0.069978 -0.911799 255 255 255
-0.214639 -0.281527 -0.060840 255 255 255
4.212569 0.139105 -0.732032 255 255 255
0.858550 0.591400 2.908865 255 255 255
5.365775 -0.381602 0.201441 255 255 255
-0.243081 -0.254849 -0.001791 255 255 255
-0.315246 -0.287288 0.438769 255 255 255
-0.336936 -0.228604 0.386082 255 255 255
0.622964 0.848668 -0.480918 255 255 255
-0.256740 -0.508103 0.631019 255 255 255
-0.842518 -0.672099 2.481421 255 255 255
0.528111 0.711728 -0.465990 255 255 255
-0.434677 -0.192807 -0.141301 255 255 255
-0.366074 0.492776 0.266988 255 255 255
0.070500 -0.271618 2.355378 255 255 255
3.341943 0.205910 3.792970 255 255 255
2.876378 -0.242212 -0.850554 255 255 255
3.031734 -0.830677 0.645171 255 255 255
0.522701 -0.116830 4.980646 255 255 255
-0.337213 -0.200802 0.394269 255 255 255
2.091919 0.162732 -0.675931 255 255 255
5.312689 0.251250 0.709231 255 255 255
0.601943 -0.095076 -0.562919 255 255 255
4.189052 0.062045 -0.783090 255 255 255
-0.264431 -0.411901 0.633375 255 255 255
-0.374362 -0.178869 -0.058978 255 255 255
1.331804 -0.071187 -0.547602 255 255 255
0.837806 0.794239 3.724636 255 255 255
5.295282 -0.782118 0.197208 255 255 255
-0.242971 -0.442098 0.669125 255 255 255
1.835566 0.168050 -0.616139 255 255 255
-0.299476 -0.268895 0.386612 255 255 255
-0.259092 -0.616428 0.729269 255 255 255
-0.240118 0.020884 1.124180 255 255 255
-0.339891 -0.246397 0.489985 255 255 255
-0.429583 -0.317432 0.532771 255 255 255
-1.942157 -0.722425 2.712337 255 255 255
-0.263791 0.040199 0.905487 255 255 255
-0.297758 -0.278443 0.387471 255 255 255
1.398895 0.762829 -0.479087 255 255 255
-0.280531 0.443278 0.828145 255 255 255
4.989685 0.505528 1.411301 255 255 255
4.944870 -0.816645 1.658935 255 255 255
2.651596 0.132246 -0.723570 255 255 255
-0.489565 -0.406935 0.315757 255 255 255
2.549496 -0.757075 2.731294 255 255 255
4.680779 0.591773 1.114281 255 255 255
5.054375 -0.436484 -1.064123 255 255 255
