4.753125 -1.705996 0.476515 255 255 255
9.786267 0.945804 9.302023 255 255 255
9.555608 -0.900423 -2.667281 255 255 255
7.713301 0.387233 -2.308549 255 255 255
6.033001 -1.757638 9.247915 255 255 255
9.032738 -0.244357 -2.661104 255 255 255
7.398897 1.585254 9.840481 255 255 255
-4.571177 -0.828372 5.846020 255 255 255
4.067108 0.550649 -2.103830 255 255 255
9.351391 1.417310 8.343075 255 255 255
5.088365 -0.384392 -1.602099 255 255 255
5.629578 -1.688998 2.155558 255 255 255
10.901302 0.976229 -0.974747 255 255 255
12.230933 0.334963 2.771816 255 255 255
2.523892 3.213457 8.284717 255 255 255
0.666545 -0.165880 4.440434 255 255 255
-7.379253 -0.890713 6.558092 255 255 255
10.886332 1.478182 8.676768 255 255 255
13.033231 -0.332002 3.606724 255 255 255
6.656551 -1.858615 -0.303960 255 255 255
10.921865 0.191001 -2.861347 255 255 255
7.474642 -1.714075 6.871957 255 255 255
12.346535 1.187919 5.575938 255 255 255
7.566888 -1.762336 4.276994 255 255 255
12.227186 0.382938 2.928531 255 255 255
12.072331 0.996966 5.184160 255 255 255
9.312690 0.960975 9.373917 255 255 255
4.956146 0.763394 -2.293650 255 255 255
11.269747 0.943894 -0.134214 255 255 255
1.038917 2.170240 4.869267 255 255 255
2.062594 1.961299 4.258192 255 255 255
10.547498 0.006142 -3.081791 255 255 255
11.326302 1.075397 -0.139729 255 255 255
12.538839 0.884775 0.750783 255 255 255
9.479285 -0.787428 -2.708267 255 255 255
0.541691 -1.483585 1.197559 255 255 255
12.222907 0.437522 -0.605470 255 255 255
13.464216 2.198367 8.584213 255 255 255
10.590652 0.610550 -1.237484 255 255 255
10.892194 0.977543 -0.973881 255 255 255
0.436702 -1.528385 0.923908 255 255 255
12.220807 0.580038 4.637895 255 255 255
4.418323 -0.015338 -2.067526 255 255 255
8.047293 -1.595963 -3.024300 255 255 255
-1.242956 -0.897104 1.125796 255 255 255
8.371974 0.411433 -2.590110 255 255 255
0.923204 -0.256509 -1.891957 255 255 255
7.500661 -1.690930 6.838909 255 255 255
9.585796 0.693664 -2.627528 255 255 255
10.323459 -1.849779 7.718519 255 255 255
6.295097 -1.645642 5.952328 255 255 255
12.607445 -1.764893 0.470544 255 255 255
13.702432 -1.701221 6.646464 255 255 255
10.728404 0.040603 -2.966372 255 255 255
1.956383 3.250139 3.709882 255 255 255
-1.031863 -0.926361 1.273518 255 255 255
12.370037 0.416736 3.841226 255 255 255
2.683793 2.396369 8.236734 255 255 255
7.733613 -0.827134 10.403599 255 255 255
11.008726 1.177728 8.820048 255 255 255
10.524903 0.222433 -2.849281 255 255 255
0.384578 0.479356 7.611991 255 255 255
5.737590 1.764945 1.786770 255 255 255
12.408052 0.386280 0.196396 255 255 255
13.096983 0.062277 6.223440 255 255 255
9.043075 -0.245330 -2.611475 255 255 255
10.203128 -0.822843 -2.766798 255 255 255
16.798542 4.932158 1.400358 255 255 255
4.854576 -1.003718 -2.441811 255 255 255
12.168366 0.597917 4.331554 255 255 255
13.024997 0.092895 7.764259 255 255 255
10.401660 0.617674 9.310461 255 255 255
7.107783 1.671012 8.960265 255 255 255
10.256337 0.254718 -2.799356 255 255 255
-1.011226 -1.263975 2.070554 255 255 255
7.116213 1.457226 -0.175405 255 255 255
9.550116 0.325500 -2.631840 255 255 255
4.349282 0.208859 -1.967111 255 255 255
11.609845 1.323599 8.002518 255 255 255
1.383935 1.187337 5.963939 255 255 255
6.501013 -1.746553 1.729945 255 255 255
12.522239 0.870853 0.772331 255 255 255
1.974392 1.990389 4.281469 255 255 255
7.824137 1.438950 -0.683774 255 255 255
9.231916 0.987863 -2.463561 255 255 255
0.776317 3.030051 4.899279 255 255 255
5.587981 -1.683021 2.165491 255 255 255
1.514098 1.939103 5.803963 255 255 255
8.878019 0.362004 -2.541250 255 255 255
13.406542 -1.766520 4.513661 255 255 255
1.238579 2.720120 4.506705 255 255 255
9.690043 -0.018765 -2.600173 255 255 255
3.640124 -0.300354 -1.835087 255 255 255
12.398912 -1.970445 7.283007 255 255 255
6.571357 -1.724441 1.731263 255 255 255
7.062644 1.320671 8.857488 255 255 255
0.953319 2.269920 5.287217 255 255 255
12.998723 2.603091 7.843308 255 255 255
8.877113 0.362769 -2.523181 255 255 255
5.075226 -0.441486 -2.236760 255 255 255
5.444433 0.983607 -2.219485 255 255 255
7.385052 1.581155 9.770917 255 255 255
11.203885 1.322954 8.184340 255 255 255
1.784392 -0.260198 3.768909 255 255 255
13.147629 -2.097508 4.468567 255 255 255
-0.459454 -0.649841 4.911318 255 255 255
7.739583 0.401112 -2.288587 255 255 255
8.075819 0.887177 8.870825 255 255 255
8.822657 -0.731574 -2.453885 255 255 255
7.994835 -0.923674 -3.108715 255 255 255
8.126832 -0.156688 -2.369084 255 255 255
8.831072 -1.926816 -0.236537 255 255 255
10.408649 1.373446 8.189928 255 255 255
9.298326 1.404798 8.809149 255 255 255
9.835239 1.465155 -2.718017 255 255 255
8.822812 -0.752473 -2.430314 255 255 255
1.022979 1.341762 8.749659 255 255 255
13.493211 -2.053064 6.657855 255 255 255
8.407464 1.886832 8.689898 255 255 255
7.012002 -0.993269 10.584582 255 255 255
13.507391 0.033839 7.180202 255 255 255
12.514741 -2.105344 1.227622 255 255 255
9.049366 1.322380 9.149945 255 255 255
-7.245332 -0.933075 2.453768 255 255 255
4.062005 0.196114 -2.097986 255 255 255
13.602917 -0.491491 5.089380 255 255 255
8.315648 0.781439 8.849010 255 255 255
1.579655 2.869833 9.219737 255 255 255
12.802658 0.334514 7.287759 255 255 255
2.132564 2.175909 5.258967 255 255 255
13.248229 0.056098 6.879148 255 255 255
9.531874 -1.856238 3.529498 255 255 255
4.738024 0.191821 -2.141198 255 255 255
10.406281 2.591181 8.120969 255 255 255
11.029938 1.036403 9.332930 255 255 255
12.548794 0.617878 0.758173 255 255 255
12.874964 0.012776 7.532126 255 255 255
7.095316 1.210732 8.654642 255 255 255
7.051718 -1.672847 5.861363 255 255 255
6.528806 -1.620346 7.278386 255 255 255
12.234118 -1.202628 -1.553616 255 255 255
7.789190 1.118407 -2.413666 255 255 255
-0.892383 -0.859137 0.143435 255 255 255
3.365259 0.228076 -2.049602 255 255 255
2.673417 -1.619818 4.701993 255 255 255
4.659360 -0.882557 -2.490760 255 255 255
5.316355 0.458048 -2.255245 255 255 255
7.429272 -1.786078 3.837244 255 255 255
7.508388 -1.598596 -2.931177 255 255 255
13.504301 -1.238971 4.645198 255 255 255
9.110192 0.735856 -2.577377 255 255 255
13.275599 -1.680490 4.503353 255 255 255
2.862476 0.032709 -1.750726 255 255 255
10.597708 1.178031 -1.002757 255 255 255
9.140467 -0.216289 -2.510188 255 255 255
5.549459 -0.874895 10.941155 255 255 255
6.370249 -1.654288 5.971601 255 255 255
-0.799306 -1.273350 -0.612420 255 255 255
6.377555 -1.775172 0.992254 255 255 255
11.719800 -2.040297 3.550877 255 255 255
7.436242 1.139330 -2.295108 255 255 255
1.524102 1.335092 2.354161 255 255 255
12.927163 -0.282154 2.941492 255 255 255
9.790124 -0.794139 -2.643009 255 255 255
0.691714 1.522821 2.271127 255 255 255
10.404494 2.601885 8.146072 255 255 255
10.643341 0.579170 -2.831024 255 255 255
0.078967 0.383865 5.467480 255 255 255
9.771914 0.919776 8.915340 255 255 255
8.362922 1.909629 8.762048 255 255 255
-1.915008 -0.713172 1.834155 255 255 255
8.101722 0.853928 8.799185 255 255 255
8.099147 0.857014 8.780137 255 255 255
8.067530 -0.589938 10.364060 255 255 255
16.322977 7.550768 0.069898 255 255 255
13.749335 -1.140562 6.568182 255 255 255
13.892576 -1.845329 5.781140 255 255 255
9.251056 0.655187 -2.534894 255 255 255
12.330831 0.315396 3.866382 255 255 255
13.479358 -1.645553 5.900262 255 255 255
4.378194 -1.793714 0.137505 255 255 255
6.414891 1.531505 -0.118159 255 255 255
-10.168096 -1.064968 2.097787 255 255 255
0.998686 2.103735 9.669552 255 255 255
13.128765 0.035397 7.156915 255 255 255
13.127507 -0.266824 4.160884 255 255 255
6.183021 2.333298 1.811879 255 255 255
10.669840 0.829884 -2.341990 255 255 255
8.832152 -0.153906 10.295343 255 255 255
-4.973937 -0.711772 10.212719 255 255 255
6.254763 -1.655081 5.976990 255 255 255
1.766395 -0.253212 3.785989 255 255 255
3.122422 0.357629 -2.270251 255 255 255
10.370143 1.369792 -1.231845 255 255 255
2.722685 -1.544514 0.638015 255 255 255
5.573999 -1.631610 4.625702 255 255 255
8.634847 -0.018269 10.318100 255 255 255
10.593948 1.349094 8.311881 255 255 255
9.092814 1.329499 9.305812 255 255 255
-2.858141 -1.226285 1.896132 255 255 255
11.552511 -1.454097 -3.308758 255 255 255
13.707303 -1.777884 5.730882 255 255 255
12.172429 0.966050 2.776360 255 255 255
12.947765 -0.285568 2.956758 255 255 255
10.571579 0.605962 -1.168633 255 255 255
10.882308 -0.883326 -2.957938 255 255 255
7.981566 -1.651112 -3.152995 255 255 255
1.072562 -0.251440 -1.761782 255 255 255
13.848582 -0.240276 5.919461 255 255 255
11.175415 -1.432382 -3.148781 255 255 255
0.063337 0.807718 5.552753 255 255 255
9.092278 1.334075 9.370112 255 255 255
2.571556 3.025084 2.274132 255 255 255
13.907325 -0.459910 5.785241 255 255 255
9.379904 1.367009 8.254508 255 255 255
8.906881 1.505057 8.658391 255 255 255
10.984831 1.001374 9.085606 255 255 255
11.884401 0.239311 -0.834506 255 255 255
1.203956 1.212335 5.998927 255 255 255
7.032516 0.875055 -2.240168 255 255 255
9.824603 0.291138 -2.750107 255 255 255
10.373981 -1.836045 7.987822 255 255 255
8.817216 -0.645450 10.309390 255 255 255
9.327024 0.670196 9.416256 255 255 255
10.408121 0.934778 9.303605 255 255 255
7.366891 0.716619 -2.331508 255 255 255
11.680515 -1.975647 3.560766 255 255 255
4.459196 1.683034 -0.359806 255 255 255
8.501866 2.773326 8.618074 255 255 255
4.589664 1.609451 -0.245540 255 255 255
1.668347 2.052891 4.276047 255 255 255
11.903280 -2.105537 -1.775232 255 255 255
13.352938 2.148578 8.654006 255 255 255
11.361675 0.979686 0.208057 255 255 255
0.851714 1.367195 4.248255 255 255 255
11.326014 1.046910 -0.109886 255 255 255
3.161614 -1.553460 4.636926 255 255 255
12.168859 -2.049872 -0.200367 255 255 255
12.560410 -1.142997 1.185349 255 255 255
13.593646 -1.705461 5.984954 255 255 255
12.994864 -0.010594 6.992235 255 255 255
14.204672 -1.971652 5.917620 255 255 255
13.601662 -0.461156 5.294299 255 255 255
9.885155 1.516788 -2.578436 255 255 255
-0.360338 -0.766964 0.794670 255 255 255
13.100995 -1.944836 9.193604 255 255 255
10.912716 1.358102 8.408793 255 255 255
9.978815 0.641191 9.486501 255 255 255
12.627623 -1.153449 1.060125 255 255 255
7.757573 1.495789 -0.809285 255 255 255
9.529803 0.939069 8.101563 255 255 255
10.555779 1.183391 -0.903151 255 255 255
8.701250 -0.711188 -2.742383 255 255 255
7.699875 -0.659968 -2.310886 255 255 255
6.450662 1.511023 8.815547 255 255 255
8.735163 0.724860 -2.546252 255 255 255
9.552169 0.308140 -2.683923 255 255 255
12.809146 0.345990 6.944728 255 255 255
11.337745 -1.171009 -3.063636 255 255 255
8.849247 0.355371 -2.570568 255 255 255
3.055382 0.011817 -1.812785 255 255 255
12.217436 0.338772 -1.878941 255 255 255
0.240585 0.332138 5.458209 255 255 255
4.685981 -1.890738 1.692270 255 255 255
7.695962 -0.154988 -2.291639 255 255 255
-0.151592 0.849167 5.277698 255 255 255
8.183539 1.428144 8.809614 255 255 255
3.899192 0.247638 10.824379 255 255 255
7.661149 -1.699043 3.902428 255 255 255
-0.119637 0.831979 5.328629 255 255 255
13.319477 -1.705992 4.501489 255 255 255
8.675092 1.081791 9.317127 255 255 255
9.331060 0.674117 9.447669 255 255 255
8.602203 0.569843 9.295321 255 255 255
5.946558 1.640180 9.177721 255 255 255
10.412563 0.929380 9.289019 255 255 255
10.882926 -2.075385 -0.686599 255 255 255
2.363305 -1.643489 0.471782 255 255 255
8.855836 -1.850616 -3.296386 255 255 255
2.409749 2.324572 8.213796 255 255 255
10.875767 0.479928 -0.854006 255 255 255
11.884339 1.341035 9.231398 255 255 255
11.403856 1.203849 -0.521374 255 255 255
13.338016 -1.708748 4.502546 255 255 255
10.403366 1.362812 8.152325 255 255 255
11.496598 1.213167 -0.422591 255 255 255
8.375781 1.921690 8.728019 255 255 255
0.148430 -0.136465 4.724608 255 255 255
2.768256 3.119101 2.327085 255 255 255
5.916363 1.874632 1.317354 255 255 255
12.303531 0.386046 -0.170899 255 255 255
1.590361 1.897613 6.527797 255 255 255
-1.840909 -1.165540 2.042582 255 255 255
8.791170 -1.971504 -0.619945 255 255 255
13.496829 -0.500650 4.597232 255 255 255
11.935387 1.313747 8.315375 255 255 255
10.397300 1.286101 -1.029118 255 255 255
2.346517 -1.634124 0.572036 255 255 255
13.360500 -2.240512 4.525797 255 255 255
1.227688 2.478132 5.332183 255 255 255
9.350660 1.404938 8.315731 255 255 255
4.263986 -1.826360 -0.031746 255 255 255
-0.482989 -0.767241 2.194077 255 255 255
12.870493 0.325659 7.322648 255 255 255
12.186517 0.571738 3.172073 255 255 255
10.410649 2.560846 8.090864 255 255 255
11.716180 1.461381 8.021377 255 255 255
11.859293 0.489056 9.376534 255 255 255
13.154718 0.281542 4.151328 255 255 255
8.061492 -0.043486 10.415774 255 255 255
9.160310 0.321553 -2.485671 255 255 255
13.491607 -0.520286 4.613099 255 255 255
9.843744 0.570345 -2.909372 255 255 255
8.434833 1.894911 8.626884 255 255 255
12.864742 0.305211 7.690424 255 255 255
6.822320 -0.941316 -2.557970 255 255 255
10.311627 -1.812905 7.614624 255 255 255
13.584881 -1.266613 4.593757 255 255 255
8.694367 1.071509 9.249092 255 255 255
7.229971 -1.334182 -3.880994 255 255 255
9.336570 1.419221 8.362864 255 255 255
0.878373 3.004001 4.838238 255 255 255
7.545773 -1.631901 6.024260 255 255 255
8.227533 -1.791703 8.347509 255 255 255
13.646285 -2.059875 7.416828 255 255 255
12.945866 0.137390 3.176333 255 255 255
12.752501 0.323961 6.894948 255 255 255
7.374882 -1.684414 6.071882 255 255 255
6.092186 2.908666 2.090719 255 255 255
11.639403 1.218986 8.185317 255 255 255
-0.207427 1.674842 2.145471 255 255 255
10.356035 1.398278 -1.272960 255 255 255
12.852423 0.051496 7.530307 255 255 255
13.602629 -1.687439 5.952440 255 255 255
6.286279 1.570516 1.815711 255 255 255
12.835190 0.309386 7.655680 255 255 255
12.804711 0.188389 7.597992 255 255 255
13.462152 2.427932 9.091730 255 255 255
4.918970 0.579510 -1.958742 255 255 255
9.801424 0.632237 -3.090950 255 255 255
9.902147 -0.232684 -2.777651 255 255 255
3.564491 0.279476 -1.887179 255 255 255
9.976863 0.962562 9.462626 255 255 255
11.892215 1.230251 8.183137 255 255 255
13.585988 -1.261888 4.591637 255 255 255
13.535749 -0.537968 5.129131 255 255 255
9.992883 2.526831 8.481435 255 255 255
11.058848 0.476163 8.951623 255 255 255
5.943202 1.358115 10.463352 255 255 255
10.437636 -1.897246 8.016966 255 255 255
7.450838 -1.679077 6.856003 255 255 255
6.789157 -1.597672 -2.773524 255 255 255
7.732620 1.777555 8.878512 255 255 255
7.706043 1.790683 8.919643 255 255 255
4.323258 1.484016 10.737331 255 255 255
10.405016 1.357140 8.151564 255 255 255
13.181723 -1.752113 9.464733 255 255 255
9.982911 0.666622 9.485731 255 255 255
5.935563 2.506180 1.281293 255 255 255
7.037244 1.550738 -1.981333 255 255 255
6.125753 1.349365 10.495337 255 255 255
8.062193 0.856326 8.830013 255 255 255
9.565226 0.588080 9.480516 255 255 255
7.951805 0.222972 10.480494 255 255 255
11.269670 1.311577 8.114271 255 255 255
9.083710 0.617267 9.192411 255 255 255
11.677859 -1.936440 3.595956 255 255 255
8.608887 0.592498 9.295790 255 255 255
1.198698 1.653493 7.654946 255 255 255
12.433332 -1.794523 -0.297586 255 255 255
10.316649 -1.817573 7.591724 255 255 255
2.672617 1.598441 10.724565 255 255 255
12.371645 0.336978 3.830581 255 255 255
7.765247 1.128110 -2.494364 255 255 255
11.442730 -1.158396 -3.418704 255 255 255
13.538215 -2.209672 5.980628 255 255 255
2.181344 -1.665774 0.382725 255 255 255
7.002180 -1.675921 5.863358 255 255 255
7.138042 2.749399 9.217162 255 255 255
11.417188 1.116650 0.097298 255 255 255
1.514528 -1.491141 5.268185 255 255 255
8.256995 -1.774092 8.337232 255 255 255
7.031946 2.208991 1.629295 255 255 255
10.893710 0.595214 8.994379 255 255 255
13.133925 0.071526 6.888172 255 255 255
13.997874 -1.862707 6.589396 255 255 255
12.490222 -2.137570 0.402802 255 255 255
8.353957 -0.500285 -2.546824 255 255 255
11.682319 1.107368 2.267159 255 255 255
9.594728 -1.899641 3.850747 255 255 255
8.888899 0.158029 10.268744 255 255 255
12.945916 0.135180 3.183757 255 255 255
12.163263 0.362860 -0.636675 255 255 255
9.932746 1.211473 9.111553 255 255 255
11.598064 -1.995575 3.185014 255 255 255
-0.002553 3.313474 4.922279 255 255 255
9.614899 -1.855792 3.930251 255 255 255
7.388224 -0.609510 -2.228815 255 255 255
1.858122 1.287466 4.271414 255 255 255
10.777029 0.003787 -2.623502 255 255 255
14.053340 2.345264 7.356277 255 255 255
6.608598 2.876363 1.862217 255 255 255
8.404884 -0.708142 -2.410979 255 255 255
10.048800 1.377270 9.255761 255 255 255
3.086063 0.819309 -1.549268 255 255 255
13.760874 -1.157079 6.394050 255 255 255
10.486150 0.268156 -3.225821 255 255 255
1.174520 1.872071 8.281693 255 255 255
9.924272 1.417523 9.148597 255 255 255
10.426885 0.972666 9.362676 255 255 255
4.245563 0.214187 -2.018918 255 255 255
13.155226 0.099527 7.632518 255 255 255
7.863791 -0.481069 -2.547944 255 255 255
6.524369 -1.624212 7.293036 255 255 255
6.886153 -0.470066 -0.837539 255 255 255
13.171490 0.012350 7.344839 255 255 255
13.198815 -1.991545 9.488471 255 255 255
12.958299 -0.279562 3.116037 255 255 255
4.381209 1.431916 10.724254 255 255 255
12.383183 0.606438 3.600758 255 255 255
-0.994014 -0.431502 1.053364 255 255 255
9.677867 2.665143 8.619737 255 255 255
6.114089 1.361358 10.448443 255 255 255
5.724059 -1.885747 -5.005584 255 255 255
13.742151 -1.175119 5.913562 255 255 255
2.392358 -1.650818 4.638362 255 255 255
13.012354 -0.079186 6.863960 255 255 255
1.622459 2.551318 2.296200 255 255 255
5.312291 -1.729388 1.945558 255 255 255
3.661897 -0.159228 -1.920117 255 255 255
8.678754 0.644404 9.056101 255 255 255
9.140771 1.367118 8.991849 255 255 255
4.331177 -0.039731 -1.939195 255 255 255
11.598681 -2.056799 3.102086 255 255 255
1.344429 -0.227915 3.666821 255 255 255
1.294993 -0.031715 2.265058 255 255 255
3.334633 -1.508251 4.765939 255 255 255
10.323663 -1.806583 7.586396 255 255 255
13.181142 -2.149351 4.481256 255 255 255
11.682019 -2.016793 3.476171 255 255 255
13.555507 -1.169350 5.298665 255 255 255
10.439391 1.431434 8.884387 255 255 255
5.321003 0.731620 -2.300032 255 255 255
8.336164 0.683022 9.036408 255 255 255
14.017933 -1.863748 6.605894 255 255 255
9.994686 1.259439 9.243464 255 255 255
8.364884 0.840314 8.860760 255 255 255
-0.299894 1.810621 2.011050 255 255 255
1.260869 -0.036720 2.214154 255 255 255
10.791264 1.609414 1.704438 255 255 255
0.913001 1.354856 4.372849 255 255 255
10.381217 0.924460 -2.087736 255 255 255
13.958312 -1.176699 7.009964 255 255 255
8.925054 0.703092 9.336630 255 255 255
3.446708 1.101851 -1.760026 255 255 255
13.784801 -0.524297 5.912668 255 255 255
7.620993 -1.270457 -2.931593 255 255 255
11.429877 -1.167396 -3.281224 255 255 255
13.772940 -1.153992 6.380287 255 255 255
13.105823 -0.258084 4.160153 255 255 255
13.584587 -0.506902 4.591149 255 255 255
13.807517 -2.043120 7.443240 255 255 255
13.768991 -2.011807 7.411473 255 255 255
13.036765 0.018858 7.698632 255 255 255
9.358215 0.983218 9.381576 255 255 255
2.054239 0.030396 -2.406251 255 255 255
7.340904 1.302547 -0.689850 255 255 255
10.385776 -1.823243 7.956131 255 255 255
9.598474 -1.871340 3.907897 255 255 255
5.028525 0.874861 -0.936489 255 255 255
10.379554 0.635493 9.345781 255 255 255
11.819605 1.272750 9.045932 255 255 255
12.418926 0.960666 3.965700 255 255 255
13.584312 -2.429763 10.143285 255 255 255
7.809971 2.130960 1.117544 255 255 255
6.705888 1.338661 8.976554 255 255 255
8.410525 1.230945 8.921130 255 255 255
11.685971 1.108966 2.286275 255 255 255
6.857496 1.310137 8.870080 255 255 255
5.933471 1.978925 1.336261 255 255 255
6.941721 1.272053 8.830296 255 255 255
-0.965900 1.815155 1.599642 255 255 255
11.862516 0.502398 9.146649 255 255 255
8.023125 2.775799 1.478415 255 255 255
13.147651 -2.087932 4.482855 255 255 255
13.073167 -0.010004 7.262296 255 255 255
12.986079 0.136735 3.119664 255 255 255
1.793010 -0.187772 3.868287 255 255 255
5.748384 1.443599 2.008222 255 255 255
12.388524 -1.963135 7.238485 255 255 255
8.081082 1.484404 -0.284580 255 255 255
8.541730 -1.077304 10.195045 255 255 255
8.818070 -1.836725 -3.354864 255 255 255
10.331679 -1.795804 7.572658 255 255 255
8.589662 0.615486 9.336365 255 255 255
11.035537 0.494540 9.010020 255 255 255
13.578057 -1.227587 5.092593 255 255 255
12.463222 -2.111370 0.418173 255 255 255
13.492311 -1.201548 5.166334 255 255 255
11.466077 0.290922 -1.604880 255 255 255
7.692950 1.258132 10.479624 255 255 255
13.720667 -1.131943 6.525928 255 255 255
6.283671 -1.585014 8.786974 255 255 255
2.910811 1.376506 -1.718353 255 255 255
1.835421 2.009801 4.538345 255 255 255
7.843622 2.208571 1.299368 255 255 255
7.039401 2.850284 1.884003 255 255 255
13.088069 -0.004636 7.272631 255 255 255
6.660117 0.428877 10.616614 255 255 255
1.737904 1.866114 6.687135 255 255 255
7.805631 0.227851 -2.172966 255 255 255
-0.340372 1.290177 4.470246 255 255 255
2.900007 1.669425 -1.796769 255 255 255
11.589885 0.433010 2.077944 255 255 255
1.165202 -0.265358 -1.702114 255 255 255
-5.819349 -0.985760 10.844584 255 255 255
13.196577 0.250465 4.135159 255 255 255
5.952863 -0.792849 -2.529283 255 255 255
11.593818 1.065039 1.896520 255 255 255
8.016931 -0.097699 10.466797 255 255 255
8.516584 0.779507 9.174478 255 255 255
6.511002 1.381211 9.011078 255 255 255
-0.207990 2.917044 4.128236 255 255 255
4.344117 1.537794 10.833139 255 255 255
5.936493 1.370341 2.145277 255 255 255
9.257076 1.181429 9.081645 255 255 255
8.882424 1.046097 -2.640714 255 255 255
6.772708 2.075536 8.916416 255 255 255
13.585120 -2.032618 7.391033 255 255 255
6.230491 -1.588139 8.390679 255 255 255
4.321881 1.202780 10.963330 255 255 255
8.053969 2.782043 1.488157 255 255 255
7.277634 -1.643534 7.155752 255 255 255
7.789248 -1.690761 -3.582155 255 255 255
9.324504 0.674470 9.420910 255 255 255
1.552917 0.979389 6.021527 255 255 255
12.924937 0.115586 3.253078 255 255 255
10.395830 -1.803294 7.972553 255 255 255
13.755162 -0.518473 6.524102 255 255 255
8.284737 0.853151 8.936762 255 255 255
10.530554 1.341310 8.940459 255 255 255
9.174803 1.263939 9.272220 255 255 255
7.485468 2.258126 -0.136015 255 255 255
8.511193 0.758675 9.028682 255 255 255
4.342901 0.993252 -1.634481 255 255 255
0.307478 2.436110 5.267986 255 255 255
5.574900 1.508074 1.851955 255 255 255
11.011474 1.090571 9.418141 255 255 255
11.841255 0.484964 9.318886 255 255 255
10.401724 1.462768 1.667568 255 255 255
-0.757673 1.756473 1.695285 255 255 255
10.048822 1.384935 9.264123 255 255 255
7.404758 2.105139 -0.104231 255 255 255
7.826960 1.445123 0.182581 255 255 255
1.283913 3.282467 9.291035 255 255 255
1.256421 2.215108 5.415549 255 255 255
8.157396 -0.738111 -3.193888 255 255 255
-0.299242 1.998029 4.495924 255 255 255
7.770869 0.780555 -2.506415 255 255 255
8.441510 -0.674601 -2.413322 255 255 255
12.352763 0.326468 3.881027 255 255 255
6.512306 0.604773 -3.246925 255 255 255
8.231637 1.024936 8.738877 255 255 255
4.254128 0.484740 -1.997423 255 255 255
6.682397 -0.627727 -2.263728 255 255 255
7.385368 -1.683789 6.075465 255 255 255
13.890611 -1.152950 7.008791 255 255 255
9.503309 1.308167 9.173079 255 255 255
5.992201 2.256984 0.505352 255 255 255
9.747531 1.405962 9.667305 255 255 255
9.367123 0.951989 9.336323 255 255 255
10.932208 0.589056 -1.039759 255 255 255
8.603186 0.591671 9.301785 255 255 255
5.640366 1.713823 -0.848468 255 255 255
13.531415 -1.159711 5.310478 255 255 255
13.096773 1.185920 3.707085 255 255 255
2.528163 -1.591548 0.724790 255 255 255
6.980164 2.208508 1.561040 255 255 255
7.894317 1.419255 -0.548857 255 255 255
2.478981 -1.608866 0.807078 255 255 255
7.929672 -0.622219 10.526150 255 255 255
10.397905 0.623439 9.320910 255 255 255
0.147574 2.092223 3.948490 255 255 255
10.313140 -1.811347 7.579679 255 255 255
13.654927 -1.171751 5.786985 255 255 255
10.648751 0.665484 -0.572175 255 255 255
10.844321 0.762398 1.703982 255 255 255
13.125931 -2.039363 4.388440 255 255 255
-1.131822 1.283788 4.375719 255 255 255
0.867224 3.041055 4.914371 255 255 255
9.897756 1.248222 9.179914 255 255 255
13.606702 -1.720383 5.794970 255 255 255
-2.151565 3.156066 1.464362 255 255 255
13.068274 -0.093153 7.537680 255 255 255
11.365263 -1.310310 -3.274900 255 255 255
5.347371 0.778288 -2.241656 255 255 255
4.195771 0.683167 -1.996669 255 255 255
9.448397 0.401601 -2.897038 255 255 255
1.382561 0.934974 6.394462 255 255 255
-6.496219 -1.029030 11.077915 255 255 255
8.388403 0.761673 8.790042 255 255 255
11.346278 0.955023 2.910244 255 255 255
9.284693 1.173683 9.122455 255 255 255
5.480068 -1.635700 4.681837 255 255 255
8.913969 0.697965 9.343643 255 255 255
1.636023 1.027689 6.259937 255 255 255
7.922891 1.410627 -0.530181 255 255 255
6.061904 -1.650404 8.523740 255 255 255
-1.416290 0.630689 4.277558 255 255 255
9.321453 1.161682 9.136880 255 255 255
8.238062 0.728967 8.783794 255 255 255
7.557842 1.224143 -0.397866 255 255 255
2.391403 3.300564 8.371832 255 255 255
10.622432 0.600812 9.483801 255 255 255
13.750583 -1.156167 6.402362 255 255 255
8.738955 0.547556 8.810228 255 255 255
6.904180 -0.968523 -2.476367 255 255 255
8.032587 1.152717 0.353936 255 255 255
13.498193 -2.128411 5.818202 255 255 255
11.628872 -1.975246 3.221784 255 255 255
1.692147 0.763436 -3.744796 255 255 255
0.379960 -1.558071 1.047992 255 255 255
12.916408 -0.102307 6.231562 255 255 255
7.303518 -1.639588 7.123558 255 255 255
10.592157 -0.971241 -5.123878 255 255 255
10.081174 0.263404 -2.258698 255 255 255
13.747460 -1.803883 5.721935 255 255 255
8.846501 0.338078 -2.440016 255 255 255
11.574642 0.531775 2.118297 255 255 255
11.853481 1.254832 4.619049 255 255 255
13.606913 -2.126092 6.674504 255 255 255
0.875028 0.485377 8.711118 255 255 255
13.452000 -2.122763 5.852216 255 255 255
8.554417 1.153272 9.062775 255 255 255
11.610451 0.913950 2.233405 255 255 255
8.846662 -1.995737 -0.632278 255 255 255
6.828677 0.493066 -2.074975 255 255 255
8.578372 0.734278 8.990429 255 255 255
13.508176 -0.528162 5.177135 255 255 255
11.029842 0.967104 -1.049433 255 255 255
10.575183 0.232497 -2.841479 255 255 255
7.546309 -1.659509 6.858044 255 255 255
-0.866347 -0.458924 1.123319 255 255 255
8.788673 0.178389 -2.620532 255 255 255
2.248578 -1.402708 5.461307 255 255 255
7.864372 2.143066 1.309522 255 255 255
1.440801 1.257166 8.687306 255 255 255
8.628298 -0.721106 -2.939582 255 255 255
5.448339 0.920236 -1.239064 255 255 255
6.647171 -0.596346 -2.211626 255 255 255
7.267506 0.785243 -0.231833 255 255 255
6.190412 1.491863 9.113547 255 255 255
7.612396 1.459885 -0.194863 255 255 255
4.383633 1.505637 10.797291 255 255 255
11.147167 0.372620 -1.974655 255 255 255
8.816967 -0.045804 10.110182 255 255 255
4.888658 0.971424 -2.542041 255 255 255
13.728509 -1.136505 6.524485 255 255 255
1.803523 -0.408834 -2.603913 255 255 255
9.323136 0.570661 -2.556397 255 255 255
11.104527 0.534684 9.556726 255 255 255
8.138589 0.448516 -3.518468 255 255 255
13.159368 -0.114176 7.695027 255 255 255
6.500403 -1.638869 7.299541 255 255 255
1.327905 1.931544 10.322057 255 255 255
8.525102 0.736608 9.196577 255 255 255
7.306274 -1.634593 7.126630 255 255 255
13.848284 0.928358 8.811652 255 255 255
3.146996 -1.551370 4.819942 255 255 255
11.716145 -2.014760 3.482983 255 255 255
10.620127 1.069169 1.506578 255 255 255
8.451116 0.805386 9.067204 255 255 255
10.998625 1.139204 1.651508 255 255 255
6.502268 0.461488 10.742251 255 255 255
13.175572 -0.013939 7.739347 255 255 255
12.197244 0.884531 2.690991 255 255 255
8.340374 -1.691052 7.982388 255 255 255
2.113129 1.705508 4.371370 255 255 255
11.430757 1.140009 2.615244 255 255 255
12.383892 0.350693 2.626022 255 255 255
13.831147 -1.843342 5.936368 255 255 255
11.179012 0.614748 -1.937247 255 255 255
11.294299 0.929015 0.485392 255 255 255
3.401496 -1.574210 8.940693 255 255 255
8.058058 -0.674409 -2.461278 255 255 255
7.922144 -0.605318 -2.245093 255 255 255
13.872235 -1.154691 7.013961 255 255 255
7.704970 1.424609 -0.263161 255 255 255
9.622810 1.529874 0.450400 255 255 255
13.705533 -1.180217 5.720182 255 255 255
1.495111 3.235595 9.250868 255 255 255
9.274266 0.635946 -2.585838 255 255 255
1.775826 2.074114 5.418558 255 255 255
6.337560 0.156039 10.604508 255 255 255
10.764117 0.296535 -2.804539 255 255 255
6.065561 -1.606044 6.329818 255 255 255
8.480136 -0.161321 -2.236624 255 255 255
5.554662 1.713183 9.316175 255 255 255
1.634740 1.211936 5.972148 255 255 255
7.047293 2.847197 1.880372 255 255 255
10.673141 1.005924 -1.264741 255 255 255
1.044125 1.101799 6.717200 255 255 255
7.359444 -1.714758 6.039035 255 255 255
11.708356 -2.010550 3.513178 255 255 255
13.207893 -0.043050 7.504719 255 255 255
8.362908 0.879733 8.708299 255 255 255
13.884379 -2.062435 9.006772 255 255 255
13.188677 -0.078444 7.783803 255 255 255
1.293181 2.471754 4.418634 255 255 255
8.368606 0.892272 8.711597 255 255 255
13.999677 0.987224 8.082756 255 255 255
5.649571 1.424267 0.407456 255 255 255
12.190384 0.888585 2.665805 255 255 255
9.220807 0.689587 -2.591362 255 255 255
12.147935 -1.985928 -1.864553 255 255 255
0.606344 1.362869 4.592479 255 255 255
13.311708 1.253199 4.388751 255 255 255
11.860216 1.046658 2.412674 255 255 255
6.481721 -1.636364 7.302672 255 255 255
4.273774 2.099761 -1.889877 255 255 255
13.105020 -0.049624 7.499891 255 255 255
8.466559 0.766672 8.847283 255 255 255
13.221155 0.085718 7.626023 255 255 255
8.183630 0.702203 9.146770 255 255 255
2.119683 0.330409 4.433136 255 255 255
6.537262 0.445351 10.696342 255 255 255
-0.611466 0.649991 1.751314 255 255 255
4.485307 -0.283420 -1.967362 255 255 255
12.442674 -1.949190 7.617166 255 255 255
3.570694 1.617272 -1.778182 255 255 255
10.259521 0.287918 -2.959039 255 255 255
-0.239951 2.799571 1.544304 255 255 255
-4.387587 -1.199881 2.116272 255 255 255
3.711808 1.600202 -1.521676 255 255 255
11.730506 1.066300 2.442175 255 255 255
7.091824 -0.445161 -2.533086 255 255 255
7.035980 2.852540 1.902094 255 255 255
8.805427 -0.177340 -2.517734 255 255 255
9.756204 0.660545 -3.441415 255 255 255
10.243825 0.277652 -2.863188 255 255 255
10.840226 1.250890 3.910379 255 255 255
13.582784 0.713923 4.523179 255 255 255
12.291561 1.247046 5.175522 255 255 255
13.108046 -0.087931 7.376313 255 255 255
11.747680 0.839774 2.239166 255 255 255
4.242762 -0.310284 -1.918563 255 255 255
7.081580 -1.759789 12.905028 255 255 255
7.037998 -0.971481 10.549561 255 255 255
10.822346 -2.069312 -0.717329 255 255 255
8.243614 -1.716194 8.081646 255 255 255
11.738155 1.152082 4.191383 255 255 255
7.945184 -1.077015 10.432937 255 255 255
11.757620 0.855700 2.141669 255 255 255
13.939315 0.942136 8.065424 255 255 255
9.187336 0.052651 -2.415581 255 255 255
1.599791 1.038390 6.246634 255 255 255
1.354673 3.333905 9.256736 255 255 255
8.879689 0.153779 10.251563 255 255 255
9.702674 0.524835 9.551947 255 255 255
10.669687 -0.803690 -2.813294 255 255 255
7.460618 -1.693848 6.844843 255 255 255
4.101197 0.678718 -2.018465 255 255 255
13.772859 0.564861 5.747242 255 255 255
8.173754 -1.740599 8.115417 255 255 255
2.120651 1.675151 4.368661 255 255 255
7.944840 -1.159965 -3.094641 255 255 255
4.681640 -1.748235 0.195379 255 255 255
13.198647 0.266851 4.114955 255 255 255
8.361156 -1.729369 8.395740 255 255 255
13.175869 -0.095931 7.704370 255 255 255
1.391716 1.268291 4.399213 255 255 255
13.227087 -0.046334 7.766187 255 255 255
8.131692 -1.031079 -2.770928 255 255 255
6.430907 0.115284 10.726216 255 255 255
0.165600 -0.700905 4.915480 255 255 255
13.553877 -0.420244 5.052777 255 255 255
3.128661 1.147492 -1.927010 255 255 255
9.865224 2.276332 -0.153132 255 255 255
4.414086 1.816099 -1.121472 255 255 255
12.500536 -1.995785 7.618246 255 255 255
6.904478 -1.013663 -2.426561 255 255 255
7.963802 -0.106596 10.446995 255 255 255
5.714816 0.800415 -2.015297 255 255 255
12.263417 0.880146 2.577614 255 255 255
13.652575 0.754769 5.074618 255 255 255
6.296029 0.250418 10.738829 255 255 255
6.698802 -1.852691 -0.014348 255 255 255
7.489625 0.569474 -1.971160 255 255 255
11.113856 0.540793 9.581815 255 255 255
7.051211 -0.120293 -2.112061 255 255 255
5.628987 1.702932 9.303030 255 255 255
1.655689 2.980775 4.260346 255 255 255
3.761854 1.467327 -1.789611 255 255 255
10.447242 1.431037 1.804957 255 255 255
7.626296 2.807092 0.674543 255 255 255
3.101793 -0.864960 4.657740 255 255 255
2.419416 2.292368 8.204429 255 255 255
6.957892 0.283348 10.604609 255 255 255
11.607932 0.217490 -1.798116 255 255 255
3.460054 -1.499671 4.895719 255 255 255
7.451636 -1.763882 3.910309 255 255 255
0.456512 1.409985 4.696222 255 255 255
6.198056 -1.617982 8.819149 255 255 255
13.979345 -2.107656 9.011495 255 255 255
10.725493 0.663334 -0.954773 255 255 255
13.893048 -2.060660 8.965613 255 255 255
8.782851 0.302998 -2.710824 255 255 255
8.153465 -1.066278 -2.648135 255 255 255
13.938290 -0.355685 4.404613 255 255 255
-6.187159 -0.967682 1.648540 255 255 255
8.437648 -0.122174 10.380209 255 255 255
12.355250 -2.058442 0.672998 255 255 255
7.396894 -1.835279 3.785932 255 255 255
10.847335 1.274097 3.885352 255 255 255
2.194210 2.868848 4.391119 255 255 255
8.699186 -0.026465 10.310409 255 255 255
6.035250 1.167436 -0.267793 255 255 255
13.083555 0.077759 6.225857 255 255 255
12.386208 0.520783 3.565723 255 255 255
7.381621 -1.692425 6.070148 255 255 255
5.692285 2.912851 1.697694 255 255 255
13.912768 0.967691 8.080535 255 255 255
2.296329 3.007222 -1.524526 255 255 255
7.366700 -1.710441 6.051046 255 255 255
12.918888 1.190562 6.107948 255 255 255
7.855397 0.680480 -2.479779 255 255 255
6.365000 0.134450 10.734600 255 255 255
13.431023 -1.741078 4.653348 255 255 255
8.733108 -1.196189 10.235558 255 255 255
6.947787 -1.015067 10.627242 255 255 255
6.182701 -1.598761 7.087931 255 255 255
7.927984 1.361658 -0.294477 255 255 255
2.420490 2.294803 8.260464 255 255 255
12.912904 0.319603 7.589483 255 255 255
6.911599 -1.870999 13.193973 255 255 255
6.844678 -1.107684 10.658159 255 255 255
13.894440 -0.351770 4.901165 255 255 255
4.909554 1.950903 10.719251 255 255 255
2.586790 1.640181 10.792582 255 255 255
12.063518 0.270860 -0.173886 255 255 255
4.788768 -1.787448 0.296744 255 255 255
8.702353 -0.031569 10.291424 255 255 255
6.364636 -0.402073 10.791024 255 255 255
2.100205 0.627041 2.500813 255 255 255
6.293070 -1.575319 7.073937 255 255 255
2.360526 2.329153 8.231962 255 255 255
5.544175 -1.615765 4.692902 255 255 255
1.064648 2.077847 9.640419 255 255 255
9.570280 0.577727 9.477104 255 255 255
6.180484 -1.611238 7.045580 255 255 255
5.443548 -1.635946 4.676594 255 255 255
8.870280 0.177195 10.296342 255 255 255
12.524507 -1.197694 1.298849 255 255 255
8.498790 0.355185 -2.361982 255 255 255
8.803982 -0.634750 10.288859 255 255 255
12.218336 0.335827 2.824145 255 255 255
6.157242 -1.614264 7.076700 255 255 255
4.772788 -1.701294 0.601416 255 255 255
5.452644 -0.883602 10.946517 255 255 255
8.253126 -0.916043 -2.585302 255 255 255
13.098173 2.084719 5.577910 255 255 255
11.779792 0.476743 9.086251 255 255 255
6.264993 -1.611812 6.015910 255 255 255
6.966460 1.845374 1.549027 255 255 255
-1.690579 -1.154027 7.682427 255 255 255
7.958560 -0.105787 10.460420 255 255 255
5.443768 -0.886475 10.959722 255 255 255
6.946503 -0.390026 10.637403 255 255 255
11.662877 -2.043314 3.449562 255 255 255
10.579987 1.039349 0.393694 255 255 255
13.612259 0.573585 5.282763 255 255 255
0.655772 -1.451211 1.249451 255 255 255
13.293924 -1.831640 9.489755 255 255 255
10.125750 0.232840 -2.911316 255 255 255
7.038569 2.862927 1.880171 255 255 255
1.107364 1.317023 4.396621 255 255 255
1.042695 2.145258 10.443570 255 255 255
1.629108 2.957894 9.186860 255 255 255
3.506120 0.271788 -1.740000 255 255 255
13.142080 1.466241 5.022771 255 255 255
13.445970 -0.027047 7.615444 255 255 255
8.205563 1.548159 0.904367 255 255 255
6.406059 -1.077081 10.767897 255 255 255
6.407639 0.119267 10.774152 255 255 255
10.049159 1.328864 -1.346808 255 255 255
3.508763 1.108405 -1.909997 255 255 255
4.779970 -1.729956 0.477506 255 255 255
12.025533 1.345576 8.002604 255 255 255
10.972776 0.996037 9.016996 255 255 255
10.809397 1.131362 3.296913 255 255 255
12.129835 0.419711 4.629929 255 255 255
-2.630139 -1.250333 1.958191 255 255 255
7.461055 -1.674970 6.856242 255 255 255
11.698718 0.847299 2.229582 255 255 255
6.216086 -1.568633 7.101346 255 255 255
12.246563 0.851031 2.608124 255 255 255
10.549502 0.974744 1.591421 255 255 255
12.093275 -1.976650 -0.069491 255 255 255
4.711925 -1.699233 0.525464 255 255 255
12.101549 0.406249 4.643572 255 255 255
12.086138 0.403892 4.647726 255 255 255
11.727614 0.851085 2.219524 255 255 255
7.425102 -0.117177 -2.292956 255 255 255
13.793701 -0.234890 4.464613 255 255 255
6.969200 2.265347 1.463377 255 255 255
9.955591 2.327781 -0.384251 255 255 255
8.080226 -0.796709 10.420830 255 255 255
2.705373 1.775652 4.016876 255 255 255
10.530719 1.046036 0.314772 255 255 255
-0.306407 1.321038 1.123098 255 255 255
2.085268 1.728317 4.349836 255 255 255
8.926955 -1.984788 -0.454948 255 255 255
-7.580548 -1.015471 1.033765 255 255 255
10.719802 0.793177 1.979353 255 255 255
12.905545 1.185150 6.122382 255 255 255
7.542955 -0.134413 10.517707 255 255 255
10.446945 1.585547 1.905942 255 255 255
5.471172 -1.629596 4.675363 255 255 255
7.956341 -0.609453 10.414983 255 255 255
10.948381 1.861086 1.747265 255 255 255
12.343165 0.642569 3.631617 255 255 255
1.293395 1.631585 7.693042 255 255 255
1.552816 1.739657 -1.706445 255 255 255
9.970098 0.978197 9.459919 255 255 255
10.826829 0.995256 9.159477 255 255 255
4.163822 -1.456851 8.813253 255 255 255
13.676568 1.514414 8.079599 255 255 255
5.882750 0.199168 10.875897 255 255 255
6.521436 0.459441 10.725930 255 255 255
10.456285 -1.913126 8.011594 255 255 255
7.294038 -1.653234 7.111644 255 255 255
12.312796 0.758886 2.495536 255 255 255
12.270784 0.319156 4.519312 255 255 255
-0.648497 -0.476599 1.280027 255 255 255
9.351262 -0.747642 -2.828046 255 255 255
6.182695 -1.594255 8.392222 255 255 255
5.998098 0.105952 -2.379979 255 255 255
6.671837 0.775679 -2.468801 255 255 255
7.972967 -0.101277 10.555648 255 255 255
6.935480 0.275742 10.635632 255 255 255
-4.429054 -0.758379 6.979004 255 255 255
1.202717 1.972975 8.513038 255 255 255
3.314781 2.261103 -1.888764 255 255 255
11.315707 -0.844576 -1.894420 255 255 255
3.875161 2.330947 -1.459562 255 255 255
-2.838610 -1.257612 1.962155 255 255 255
0.641072 -1.417465 1.382271 255 255 255
1.431713 1.289630 9.160056 255 255 255
8.024655 -0.065147 10.431297 255 255 255
2.034181 0.257232 11.133826 255 255 255
7.775822 -0.144193 10.474306 255 255 255
10.370039 2.524788 0.583528 255 255 255
12.133984 2.471823 5.433450 255 255 255
1.930227 3.096756 2.681724 255 255 255
11.428730 0.937134 1.740949 255 255 255
2.255731 1.559081 2.668686 255 255 255
2.261347 1.562194 2.666319 255 255 255
13.294041 2.222652 6.121087 255 255 255
11.575028 1.208177 4.372557 255 255 255
10.953696 2.651133 3.427639 255 255 255
6.297541 0.250065 10.768028 255 255 255
8.884899 0.151711 10.247700 255 255 255
10.867208 0.998649 9.187395 255 255 255
6.409102 -1.094689 10.766870 255 255 255
1.267273 1.318233 9.182555 255 255 255
6.406393 -0.395501 10.750260 255 255 255
7.783868 0.059159 10.496758 255 255 255
6.573329 1.711421 2.026579 255 255 255
1.106887 1.320553 4.491602 255 255 255
6.948092 -0.536594 10.690611 255 255 255
8.023046 -0.102487 10.465116 255 255 255
1.893319 1.723137 6.615990 255 255 255
13.658782 0.731709 5.069531 255 255 255
1.515153 0.928591 6.712696 255 255 255
8.931402 -2.049168 -0.764783 255 255 255
6.418744 0.119496 10.766136 255 255 255
5.399269 -1.621637 4.332238 255 255 255
10.759059 1.061948 0.249109 255 255 255
12.269580 0.927557 5.109589 255 255 255
10.393334 0.629370 9.366553 255 255 255
14.078654 -1.286410 7.110909 255 255 255
-0.657491 -1.354825 1.652769 255 255 255
8.759498 -1.140356 10.282505 255 255 255
5.428105 -1.636305 4.650637 255 255 255
5.415592 -1.661117 4.603920 255 255 255
5.458025 -1.645002 4.657198 255 255 255
8.452343 -0.123143 10.314553 255 255 255
11.320539 0.961903 8.614626 255 255 255
7.686208 -0.547528 10.497580 255 255 255
1.923105 2.336721 5.340607 255 255 255
10.816321 -2.088156 -0.737373 255 255 255
6.188112 -1.597867 7.070048 255 255 255
0.654946 1.356634 4.600253 255 255 255
3.847068 1.338256 -1.917006 255 255 255
5.543691 0.218029 10.910817 255 255 255
6.443795 0.114731 10.735524 255 255 255
10.844866 1.263263 3.890427 255 255 255
5.535585 -0.519639 -2.073019 255 255 255
3.331746 2.122696 -1.605720 255 255 255
12.058599 1.335037 5.410937 255 255 255
0.899707 0.806545 7.806996 255 255 255
12.218522 0.833235 2.607378 255 255 255
7.525157 -1.746945 4.294908 255 255 255
12.373064 0.580851 2.980888 255 255 255
1.232279 2.160669 9.875550 255 255 255
10.387992 0.587817 -0.904177 255 255 255
9.591494 -1.910660 3.453690 255 255 255
7.068134 -1.674074 5.858646 255 255 255
8.751713 -0.023888 10.398260 255 255 255
13.837223 0.974904 8.134878 255 255 255
4.786406 -1.763657 0.470893 255 255 255
2.514643 1.658723 10.806922 255 255 255
11.413401 0.722883 -2.060610 255 255 255
-3.450505 -0.839035 10.527332 255 255 255
2.147369 1.832908 4.387488 255 255 255
11.240641 -0.871780 -2.115640 255 255 255
1.933025 0.319413 10.504192 255 255 255
12.145288 0.361194 -0.712754 255 255 255
10.586072 1.955783 1.974682 255 255 255
7.022027 2.574623 1.894397 255 255 255
2.135031 1.676749 4.364666 255 255 255
12.158644 1.140989 4.077769 255 255 255
-1.751687 -1.153889 7.703660 255 255 255
0.969014 0.366917 9.064285 255 255 255
1.695558 2.901696 -1.160662 255 255 255
7.930011 1.231467 10.456474 255 255 255
1.576308 2.962458 -1.354998 255 255 255
1.150797 1.315039 4.554784 255 255 255
0.660103 1.723779 4.589412 255 255 255
1.834168 1.809476 4.340678 255 255 255
1.157680 1.865336 8.257638 255 255 255
12.904030 0.465607 5.436258 255 255 255
7.754514 1.246318 10.481370 255 255 255
10.933526 0.785387 1.659444 255 255 255
0.436513 0.708890 5.698966 255 255 255
11.203068 1.117265 8.854594 255 255 255
2.283941 -1.409056 9.469375 255 255 255
5.891484 1.464578 -2.307593 255 255 255
7.153780 -1.738145 13.077340 255 255 255
11.045337 2.564223 4.200879 255 255 255
6.545949 -1.827829 0.148011 255 255 255
9.023327 -2.055627 -0.744802 255 255 255
1.342332 -1.366642 5.138672 255 255 255
1.097595 -1.111148 9.738901 255 255 255
7.387967 -0.434540 10.555379 255 255 255
13.511662 0.483605 5.460405 255 255 255
-0.035483 -0.784361 7.049916 255 255 255
1.215218 0.027475 4.438886 255 255 255
5.518240 0.217396 10.949668 255 255 255
10.811054 1.160186 3.329620 255 255 255
2.176791 0.627026 2.588236 255 255 255
0.971148 0.587416 9.024135 255 255 255
10.934731 0.771277 1.631908 255 255 255
10.928986 2.623847 3.508032 255 255 255
0.784126 1.795222 4.598712 255 255 255
2.082324 0.646323 2.476155 255 255 255
2.218107 1.585982 2.605365 255 255 255
0.873412 0.339819 8.715153 255 255 255
12.579181 -2.138924 -0.779853 255 255 255
4.290630 0.512951 -2.058558 255 255 255
3.557227 1.327507 -1.714936 255 255 255
7.285047 -1.619475 6.202369 255 255 255
12.636702 -2.030281 0.241021 255 255 255
1.048356 1.883443 8.591525 255 255 255
12.542136 -1.195604 -0.675508 255 255 255
2.105742 0.347003 4.425210 255 255 255
10.063217 1.378134 -0.545665 255 255 255
1.652197 1.054493 6.604388 255 255 255
1.016708 0.709554 9.018809 255 255 255
2.205379 2.789858 -1.376400 255 255 255
0.665437 0.433445 7.597337 255 255 255
6.891551 -0.690310 -2.146416 255 255 255
1.381464 2.109553 9.846416 255 255 255
13.290455 0.366476 6.098257 255 255 255
7.690940 -0.545519 10.498158 255 255 255
0.873497 0.806265 7.800008 255 255 255
11.542238 1.201990 4.351195 255 255 255
12.846220 2.573528 6.335896 255 255 255
9.274048 0.626436 -2.494115 255 255 255
1.293613 2.141429 4.732196 255 255 255
6.210098 -1.574436 7.102781 255 255 255
0.185254 0.345038 5.469775 255 255 255
2.125617 0.109418 2.599693 255 255 255
4.647108 2.695809 -1.801121 255 255 255
2.035019 0.255461 11.129243 255 255 255
5.503164 1.206563 -0.793743 255 255 255
1.416589 -1.374536 5.498730 255 255 255
7.395370 -0.596220 -1.162536 255 255 255
0.737322 0.772121 7.548398 255 255 255
1.108424 1.022060 6.787406 255 255 255
0.996742 -1.160727 9.769417 255 255 255
5.459822 -0.906693 10.912494 255 255 255
6.039094 -1.590162 6.336957 255 255 255
5.472920 -1.644733 4.423542 255 255 255
7.183916 -1.740108 13.086808 255 255 255
2.825194 3.056046 2.522122 255 255 255
12.507496 1.324648 1.066284 255 255 255
12.457162 1.366128 5.293456 255 255 255
12.294985 0.897652 4.602725 255 255 255
5.772386 0.155453 10.820756 255 255 255
2.088544 0.098797 2.510851 255 255 255
1.498541 1.603168 7.132467 255 255 255
5.543169 1.209731 -0.107582 255 255 255
1.122274 2.008305 8.505553 255 255 255
7.355911 -1.684053 6.091326 255 255 255
5.922403 0.151729 10.728856 255 255 255
-1.883071 -1.167212 7.729747 255 255 255
1.041055 0.693835 9.260289 255 255 255
0.900689 0.364908 9.056536 255 255 255
10.049855 0.135746 -2.869751 255 255 255
1.084823 2.044695 9.609557 255 255 255
5.440631 0.532609 10.939885 255 255 255
5.448072 0.524020 10.885272 255 255 255
2.824873 3.086678 2.503113 255 255 255
4.434702 1.859758 -0.767698 255 255 255
12.313433 0.662063 3.628766 255 255 255
1.121366 1.862182 8.255105 255 255 255
11.225304 0.548915 9.601503 255 255 255
0.963049 0.360761 9.047468 255 255 255
3.575014 1.472985 10.465948 255 255 255
0.869395 -1.419079 1.594256 255 255 255
6.933567 -1.632468 7.048569 255 255 255
1.035415 2.021289 8.450322 255 255 255
11.079954 0.643917 -1.902629 255 255 255
12.766541 0.334152 0.702117 255 255 255
5.494845 -0.338457 10.943534 255 255 255
5.428642 -1.625839 4.342100 255 255 255
0.973907 0.352227 9.269487 255 255 255
2.133673 2.556849 5.352768 255 255 255
1.414743 -1.364920 5.512583 255 255 255
12.215679 2.572989 5.522953 255 255 255
-0.576717 -0.455374 1.445760 255 255 255
9.311563 -0.709609 -2.606824 255 255 255
11.215058 0.028854 -3.976302 255 255 255
2.724823 2.651743 -1.725229 255 255 255
6.914601 -1.022266 -2.475681 255 255 255
-0.400526 -0.474363 1.700206 255 255 255
5.531256 1.187393 -0.188791 255 255 255
6.291423 -1.770729 2.083664 255 255 255
7.452487 -1.761825 4.272661 255 255 255
6.195165 -1.584912 7.104662 255 255 255
6.198819 -1.579834 7.112737 255 255 255
10.512442 1.060460 0.418046 255 255 255
7.229531 -1.665389 7.193389 255 255 255
6.118734 -1.547611 8.407640 255 255 255
1.738489 1.620613 5.887624 255 255 255
7.437735 -1.637548 6.871850 255 255 255
1.414878 1.249360 8.654767 255 255 255
5.481384 0.183269 10.922297 255 255 255
2.149195 1.655692 4.398971 255 255 255
2.157894 2.130757 6.513451 255 255 255
0.910805 0.549987 8.706191 255 255 255
5.985215 0.166092 10.824677 255 255 255
8.159895 0.778492 9.501340 255 255 255
10.882539 0.769259 1.747000 255 255 255
3.918647 1.547948 -1.751380 255 255 255
9.275766 0.321728 -2.745291 255 255 255
1.012537 0.711884 9.013025 255 255 255
1.750049 0.001771 4.253531 255 255 255
6.900603 -0.550012 10.636631 255 255 255
3.360188 -1.491596 4.755618 255 255 255
3.606642 1.627878 -1.681169 255 255 255
2.513109 -1.596807 0.649602 255 255 255
9.993827 2.315788 2.598480 255 255 255
6.501303 -1.589440 7.306297 255 255 255
3.423750 -1.489492 5.094733 255 255 255
5.904459 0.323772 -2.149555 255 255 255
7.505958 0.816356 -1.026357 255 255 255
3.428742 -1.498285 5.058027 255 255 255
10.772120 1.184415 1.885660 255 255 255
2.105953 0.250861 11.043681 255 255 255
2.135320 0.311118 4.481960 255 255 255
10.305344 1.454226 -1.051469 255 255 255
1.425822 0.637466 -1.906012 255 255 255
7.675671 1.361614 10.226070 255 255 255
12.778493 0.718322 8.430484 255 255 255
12.132435 0.844435 4.704771 255 255 255
0.951535 0.689520 8.680090 255 255 255
11.769165 1.246733 1.815557 255 255 255
0.151401 -0.600634 5.196586 255 255 255
0.710808 0.437697 7.812159 255 255 255
2.071260 0.257651 11.080149 255 255 255
2.639969 2.809088 -1.425676 255 255 255
6.933718 0.275512 10.633544 255 255 255
6.430511 -0.888024 -2.456645 255 255 255
1.221969 0.282088 10.395426 255 255 255
5.899642 0.189746 10.823000 255 255 255
6.458537 3.256469 1.194363 255 255 255
52.605465 -10.915284 22.703285 255 255 255
2.179020 2.314735 4.431983 255 255 255
4.765909 3.131263 -3.385204 255 255 255
1.836840 1.526368 7.062572 255 255 255
2.763721 3.038381 2.303674 255 255 255
1.187056 0.941975 6.618380 255 255 255
4.289578 2.019764 -1.628750 255 255 255
1.075826 0.704782 9.214842 255 255 255
