1.422147 -0.165336 0.400823 
-2.269946 -0.837108 0.601210 
-1.406418 -0.009575 -0.139151 
0.790668 0.380899 0.916479 
-0.223689 0.049128 1.650001 
1.493120 -0.253052 -1.381431 
0.160977 -0.495462 1.725867 
1.350728 0.092216 0.428060 
1.311678 0.044680 0.410872 
0.353912 -0.772936 1.222865 
-1.412112 0.008295 0.158577 
-1.644492 0.338217 0.173579 
-0.478766 -0.333165 1.748937 
1.438631 0.006080 0.385620 
0.461240 -0.574657 1.763951 
-0.659366 0.061041 1.541541 
1.345388 -0.072257 -1.591632 
-0.333330 0.171638 1.344155 
0.273164 -0.077417 1.285531 
-1.663681 -0.657136 -0.977988 
1.574184 -0.043957 0.858618 
1.175183 0.072017 -0.409850 
0.857514 0.051203 1.296463 
-1.668124 0.018746 -0.212236 
-0.211664 -0.767891 1.141623 
1.536413 -0.235938 -1.528474 
-1.698599 -0.431940 -0.532325 
0.900269 -0.532979 -1.584275 
1.365933 -0.536836 -1.580628 
-0.672038 -0.499179 -1.611533 
1.651130 -0.106476 0.894620 
-1.669302 -0.444343 -0.812233 
1.221469 0.386804 -0.003771 
-1.721387 0.334684 -0.405586 
-1.641057 -0.339137 -0.471211 
-1.345550 -0.241956 0.437250 
-1.257850 0.108895 -0.087082 
-1.442101 0.034189 0.177022 
0.336350 -0.136350 1.388156 
-0.991346 -0.000360 -0.642584 
0.165394 -0.381811 -1.644709 
0.216124 -0.721506 -1.715171 
-0.461307 0.254200 1.400037 
-1.148928 0.329046 -1.032406 
-1.691107 -0.451187 -0.945646 
1.076460 0.403290 1.094180 
0.596490 -0.402420 -1.553743 
-0.110944 -0.361339 -1.613054 
-1.686905 -0.218324 -0.871926 
0.907090 -0.423354 -1.552572 
1.500164 -0.367984 -1.270572 
-1.601498 0.504184 -0.780593 
1.488539 0.213975 0.847331 
-1.811765 -0.673564 0.499346 
-0.375984 0.278843 0.039753 
1.223571 0.012505 1.043565 
-1.718147 -0.696803 -1.425195 
1.222524 -0.008403 -0.970319 
-1.440762 -0.039009 0.723738 
-0.027517 0.128171 -1.633960 
-0.584299 0.350719 1.517735 
-0.364402 -0.312477 1.735575 
0.309048 -0.859284 -0.996987 
1.486954 -0.221694 -1.197135 
0.161581 -0.284034 -1.630045 
0.277958 -0.208968 -1.234783 
-0.165820 0.347229 -0.080501 
1.798851 -0.539971 0.786820 
-0.133619 -0.795900 0.809300 
-1.309498 -0.083041 0.406600 
1.513959 -0.157627 -0.081233 
-0.845295 0.087997 1.516387 
0.795396 -0.254955 -1.575041 
1.339649 -0.837339 -1.000724 
0.157038 -0.835999 -0.739447 
0.837634 0.047157 1.323674 
-1.029690 -0.073254 -1.626819 
1.670693 -0.201577 -0.931182 
-1.038192 -0.025622 -1.261885 
1.124486 -0.151256 1.413224 
-1.021032 -0.132161 -0.622625 
-0.082462 -0.173611 -1.646840 
1.001087 -0.061513 1.571181 
-0.415185 0.390968 1.361830 
-0.309184 -0.302296 1.738519 
0.336846 -0.026008 1.321978 
-0.336940 0.335153 1.336583 
-1.053759 -0.018129 -1.297420 
0.385528 -0.793431 -1.709314 
0.622467 -0.162616 1.547673 
1.562910 0.012532 0.098017 
1.092992 0.042231 1.310983 
0.305720 -0.821304 1.333935 
-1.246921 -0.795592 1.256851 
0.640037 -0.399585 -1.597238 
-1.101478 -0.451778 -0.927719 
1.088684 -0.237798 -1.674451 
0.333722 -0.207855 -1.665497 
0.247429 0.388133 -0.003187 
-1.056435 -0.091648 -1.625831 
1.634625 -0.255599 1.291587 
0.499486 -0.185997 -1.572910 
-0.190842 -0.793126 1.160818 
0.908949 0.026074 1.052417 
0.907613 -0.526295 -1.666635 
1.609906 -0.048019 1.331841 
-0.199319 0.135822 -1.609456 
1.350003 -0.236530 -1.146673 
1.097172 0.043757 1.321276 
0.597799 -0.396915 -1.553715 
-0.351557 0.168400 1.332177 
-1.208413 0.030912 0.228541 
-1.477178 -0.005702 -0.033574 
-1.708532 -0.674429 -0.936602 
-2.218303 -0.832456 0.584805 
-1.679619 -0.841852 -0.744066 
-1.182950 0.390766 0.943507 
-0.618917 -0.535530 -1.630783 
1.129271 0.098727 0.944778 
-0.938577 -0.469661 -1.127952 
-0.692599 -0.770600 1.195382 
1.158906 -0.536590 -1.579746 
-1.694395 -0.449208 -0.971577 
0.475061 -0.860456 -1.574356 
-0.426194 0.073157 0.009504 
0.338297 -0.610179 -1.707982 
1.005938 0.380902 -0.379920 
-1.448357 -0.566362 -0.073179 
-1.324177 0.045935 0.506260 
0.355135 -0.436314 -1.656555 
-1.253911 -0.374358 -0.044296 
1.485753 -0.002474 -0.100308 
1.430678 0.027852 1.169112 
-1.169485 -0.001293 -0.067114 
-0.092628 0.027482 1.651231 
1.732185 -0.552182 0.010763 
0.390482 0.061011 1.333144 
-1.203331 -0.159365 -0.088814 
-1.180958 0.134887 0.921444 
1.511469 -0.378718 -1.292656 
0.174256 -0.831618 -0.593777 
-1.622052 -0.604096 0.841382 
1.414824 -0.784057 1.126832 
1.636997 -0.121501 0.894656 
-1.187615 0.145917 0.926383 
0.850677 -0.165503 -1.595031 
1.818717 -0.127824 0.471754 
-1.746830 -0.235458 -0.608603 
-1.258722 0.021692 1.638309 
1.460153 -0.524110 -1.443295 
-0.392742 0.042871 1.522110 
-1.335171 -0.199538 0.483716 
0.845659 -0.854337 -0.988970 
-0.198088 -0.779500 1.139059 
-1.644620 -0.625969 0.049152 
1.025062 0.074573 1.272969 
-0.605930 0.009660 1.563533 
1.373603 0.203632 0.635137 
-1.326078 0.032108 0.506550 
1.081687 -0.539464 -1.550353 
1.359966 0.245262 0.652187 
-0.649034 0.073060 1.562530 
-1.475062 -0.405582 1.646385 
0.120909 -0.524568 -1.665002 
-1.396140 -0.058370 0.628659 
1.764785 -0.600921 -1.171239 
0.965217 0.281244 1.066020 
-1.479585 0.075103 1.043915 
0.901580 -0.257613 -1.503320 
1.574268 -0.687253 1.587204 
-0.312736 -0.370324 -1.632770 
-0.381023 0.056955 1.536681 
1.530503 -0.006314 0.882332 
1.652686 -0.113482 0.895248 
1.389259 -0.034725 -0.972449 
-0.349786 0.162946 1.338202 
1.001318 0.375196 -0.370481 
-1.026385 -0.297538 -0.514801 
-0.488676 -0.519278 -1.602727 
1.716383 -0.655172 -0.463275 
-0.771998 0.056992 1.547752 
1.214824 0.299206 -0.840410 
0.778480 0.163206 1.042834 
1.619414 0.103420 0.862126 
1.254420 0.351885 -0.727973 
-0.066446 -0.793705 0.532063 
-1.092407 -0.558782 -1.632242 
-1.351374 -0.149075 -0.062385 
0.864983 -0.811754 0.009667 
1.020771 0.342712 -0.449048 
0.180865 -0.171750 -1.013826 
-1.468120 -0.564925 -0.072908 
1.124134 0.028657 1.369567 
1.185327 0.393241 0.180238 
-1.198165 0.030078 0.158630 
1.288321 0.108265 -0.426662 
0.430688 -0.160617 -1.561040 
1.316894 -0.033660 -0.553179 
-1.101935 -0.422564 -0.234013 
-1.145203 -0.381893 -0.081021 
-0.411922 0.070221 1.713258 
-0.438775 -0.176411 -1.464662 
1.792655 0.074895 -1.061062 
-0.085664 -0.176298 -1.023051 
1.144005 -0.334394 -0.008764 
0.124539 0.054634 1.337391 
0.610618 -0.536206 -1.556376 
-0.270696 0.077932 1.324784 
0.162535 -0.613094 1.723897 
1.154922 -0.056534 -0.091311 
-0.722417 0.384257 1.784488 
1.588337 -0.188072 1.250085 
-1.691358 -0.066710 -0.865139 
1.434085 0.267345 0.763625 
0.161978 -0.608963 1.729110 
-0.407721 -0.529781 -1.629116 
0.352856 -0.141681 1.382492 
0.328034 -0.141830 1.448562 
0.040345 -0.389683 1.713689 
1.551997 -0.185653 0.227093 
1.176880 0.071089 -0.406796 
-2.743746 -0.772809 0.984357 
-0.100631 -0.558249 1.714269 
0.346166 -0.519081 1.734694 
-0.621973 0.106305 0.126165 
1.759823 -0.540210 0.440348 
-1.216658 0.039470 0.163633 
-1.049871 0.138610 1.519264 
1.377732 0.010473 0.364397 
1.119342 0.048159 1.290875 
-0.509008 -0.140877 -1.686195 
0.316289 -0.523005 1.696816 
0.491541 -0.184238 -1.565191 
-0.084974 -0.563001 1.792761 
1.816495 0.053660 1.375652 
0.159432 -0.376190 -1.651348 
0.833173 -0.097107 1.545027 
1.522489 -0.102506 1.065017 
0.819680 -0.471647 -0.947797 
-0.721732 -0.809423 1.198201 
1.753967 -0.747900 -0.899317 
-1.607495 -0.424452 1.443058 
-1.616127 -0.346678 1.473133 
0.904170 -0.782871 1.209665 
-0.465934 0.394142 1.736536 
-1.045048 -0.407398 -1.055974 
0.295971 -0.845956 -0.974084 
-0.160328 -0.631106 2.580437 
-0.678089 0.078750 1.531883 
1.513381 -0.130620 0.925301 
1.112640 -0.154440 1.380762 
1.758205 -0.610335 -0.831284 
1.108830 0.045124 1.308343 
-1.438178 -0.064476 0.719808 
1.683872 -0.201710 -0.495469 
-1.374721 0.403137 1.533053 
-0.097822 -0.603535 1.750122 
-0.886456 -0.102678 1.533733 
-1.318768 -0.169750 0.490589 
1.717850 -0.187342 -0.577151 
0.286851 -0.072301 1.307464 
0.702450 -0.694331 -1.756401 
0.966959 0.043750 1.553631 
0.151289 -0.363640 1.716321 
0.763373 0.053552 1.508164 
1.606400 0.107168 0.859074 
1.724330 -0.206774 -0.883279 
-0.074678 -0.171024 -1.035193 
-1.016842 -0.181757 -0.630659 
0.766675 -0.610302 -1.679629 
-0.254209 -0.516609 1.822504 
1.578162 0.092956 0.579528 
-0.619958 0.263413 1.558158 
-1.112510 -0.553291 -1.638458 
1.088885 0.040184 1.303998 
1.360437 0.234509 0.635484 
0.561839 0.374947 1.043846 
0.462956 0.451709 -0.026299 
0.372336 -0.557767 1.710977 
1.535859 -0.527245 -1.281761 
-0.273602 -0.552883 1.745552 
0.022283 0.354892 -0.910364 
-0.394429 -0.327249 1.733833 
-1.049542 -0.523847 -0.106855 
-0.787996 0.335922 1.610214 
1.482472 -0.013970 -0.472515 
0.308977 0.149099 1.306966 
0.653407 -0.662874 2.576077 
1.817922 -0.559956 1.103874 
0.955565 -0.240453 -1.574630 
0.209992 -0.157537 -1.062316 
-3.066037 -0.795540 1.230294 
-1.421223 -0.048911 0.645609 
-1.395513 0.101573 1.741426 
0.238267 -0.132799 1.324818 
0.429448 -0.807037 -1.742911 
1.561944 -0.042103 1.300557 
-0.068017 -0.778500 0.866441 
1.597041 0.050774 0.814798 
0.162046 -0.293233 -1.643574 
1.064296 -0.163820 -1.583107 
-1.253696 -0.807904 1.277998 
-1.533792 -0.169096 -0.049737 
1.750334 -0.783481 -0.936470 
-0.024206 -0.150904 -1.651483 
0.362730 -0.611641 1.715211 
0.868666 -0.529648 -1.613408 
0.312490 0.144416 1.309800 
-0.173404 -0.804451 1.225825 
0.011121 -0.233819 -1.606338 
0.373907 0.001736 -0.706327 
1.118651 -0.160560 1.379545 
-0.208920 -0.770273 1.140391 
0.436951 -0.252642 -1.584053 
1.242682 0.354757 -0.382575 
0.954943 -0.505724 -1.328493 
1.287859 0.219518 -0.285601 
-0.776079 -0.828562 0.109520 
0.629828 0.207474 0.911617 
-1.524318 0.030938 1.067028 
-1.207303 0.054689 0.137589 
-0.121837 -0.331760 1.707466 
-0.150309 -0.866998 -0.774487 
-0.038732 0.123069 -1.634514 
0.632051 -0.677208 -1.654522 
1.068100 -0.252799 -1.573194 
-0.812410 0.148238 1.502844 
-1.282276 -0.827131 1.335535 
-1.614292 -0.510007 -0.433197 
-1.534931 0.017941 0.889517 
-0.981249 -0.005677 -0.556548 
0.341346 -0.342360 1.744872 
-0.224080 -0.825587 0.162409 
0.651127 -0.212133 -1.595649 
-0.403773 0.070591 1.708196 
0.232768 0.394270 0.237950 
-1.544895 0.012639 0.883916 
0.395130 0.394772 -0.025528 
0.354895 0.117239 -0.853975 
1.385289 0.216782 0.633419 
0.044426 -0.075219 -0.684886 
1.796138 -0.551589 0.465529 
-1.693184 -0.329774 -0.894311 
1.797280 -0.177542 0.455041 
-1.400833 0.185769 0.295471 
1.294293 0.351108 -0.217760 
0.692474 -0.529367 -1.599975 
1.235656 0.012516 -0.048875 
0.388554 -0.590773 2.592236 
-0.236749 -0.246566 1.731612 
-1.540268 -0.118140 -0.078517 
0.434261 -0.129847 1.482269 
-0.267552 -0.338548 1.710083 
1.725870 -0.326251 0.314623 
-0.210914 -0.849975 0.131550 
3.129296 0.272805 -1.377970 
0.205961 -0.144426 1.420067 
-1.303160 0.030123 0.285700 
-1.313698 0.045143 0.500590 
-0.409056 -0.010151 -1.638034 
-1.363201 -0.320287 1.434794 
-1.386008 -0.726352 -0.442303 
1.290244 -0.174736 -1.679954 
-0.463989 -0.483033 -1.648331 
-1.681638 -0.221547 -0.597957 
0.080386 0.074544 1.363857 
1.828764 -0.103490 0.453894 
-0.987569 -0.093776 1.556756 
0.230525 0.386851 0.247835 
0.729829 0.162570 1.172488 
-0.132830 -0.797469 0.601467 
1.269994 0.052392 1.358075 
-1.687622 0.290311 -1.069583 
-0.770160 0.046393 1.549405 
-1.662747 -0.700126 0.042128 
-0.488142 -0.476233 1.742158 
-0.125981 -0.636558 1.729039 
1.755735 -0.841038 -0.645629 
-0.268176 -0.548052 1.894383 
-1.431550 -0.382951 1.448447 
0.148725 -0.842406 -0.757740 
-1.621020 -0.381257 -0.073381 
0.353012 -0.787716 1.225911 
-1.202929 0.116925 0.891363 
-1.186069 0.068342 0.203925 
1.107892 0.044402 1.327509 
-0.357864 -0.334870 1.733786 
1.320231 -0.542735 -1.572514 
1.707542 0.050155 -0.800577 
0.515102 -0.668827 -1.786612 
0.774868 0.407199 0.898167 
0.143862 -0.785377 0.816186 
-1.669314 -0.326818 -0.712559 
-1.247286 -0.806103 1.274398 
-0.112440 -0.517040 1.734678 
1.800522 -0.581398 -0.555243 
0.265402 -0.031764 -1.028421 
-1.199273 0.126939 0.890155 
-0.775444 0.061438 1.547507 
-0.135037 -0.788370 0.807596 
-0.611872 0.007169 1.571007 
-0.810635 -0.836879 0.052580 
-0.100496 -0.832422 -0.479808 
1.193464 0.385541 0.004923 
-0.613319 0.007700 1.572961 
-0.626932 -0.148733 -1.656364 
-1.238460 0.159519 1.567482 
0.967447 -0.829873 -1.760056 
-1.209247 -0.105850 -1.514220 
-0.023042 -0.380281 -1.635509 
-0.137277 -0.769894 1.209295 
1.803755 -0.707635 0.820863 
-0.264541 -0.858434 -0.952033 
-0.136977 -0.591501 -1.662874 
-0.886041 -0.556968 -1.591527 
1.610808 -0.243629 0.986588 
-0.249516 -0.804630 0.166126 
0.147688 -0.793003 0.811740 
0.542298 0.047493 1.493217 
-1.100605 -0.488966 -1.674430 
-0.230104 0.304054 -1.450038 
-0.291249 -0.382136 -1.612662 
-0.791201 0.355579 1.648231 
-1.039483 -0.439927 -0.677894 
0.715239 -0.432676 -1.564075 
-0.360767 0.172063 1.342931 
-1.610029 -0.238169 -0.067388 
1.134858 -0.534215 -1.636776 
0.735926 0.050843 1.501659 
-1.448422 -0.541371 -0.067728 
-0.243365 -0.862301 -1.055063 
1.460360 0.015557 -0.764186 
1.462842 -0.785697 1.107650 
-0.425020 0.388753 1.347066 
-0.132651 -0.800686 0.607529 
-0.338393 0.167352 1.337915 
1.242756 -0.003434 -0.017106 
1.993727 0.107018 -1.139075 
0.714596 0.347336 0.982639 
-0.516210 -0.456194 1.737562 
0.986408 -0.818219 -0.275071 
1.123543 0.144748 -0.384386 
0.890845 0.023924 1.459836 
1.730108 -0.851729 -1.218880 
1.826978 -0.181478 -1.249213 
1.841729 -0.802874 0.966036 
1.145273 0.068908 0.934466 
1.492337 -0.365647 -1.256460 
-0.696564 -0.014259 -1.628620 
0.330692 -0.810659 0.139729 
-0.635820 -0.228028 -1.642584 
1.206576 0.035272 0.391388 
-1.272382 0.014989 1.691761 
-0.064316 -0.527594 -1.640441 
-1.115917 0.074653 1.650564 
-0.550049 0.156528 0.058228 
-1.339466 -0.222303 0.376595 
-0.801055 -0.862740 -0.934483 
0.337809 -0.823064 0.034361 
-0.318269 -0.512545 1.736964 
0.244299 -0.352663 1.717034 
1.762217 -0.738870 -0.665399 
-1.732617 -0.644761 -1.488297 
-1.504256 -0.047839 1.060225 
-1.683891 -0.756111 -0.963240 
1.352762 0.092323 -0.189027 
0.865762 -0.271759 -1.564481 
-1.628617 -0.753205 0.911128 
-0.062141 -0.601122 -1.679838 
-0.022845 -0.281372 -1.630224 
1.136936 0.037658 1.011563 
1.508232 -0.232474 -1.469159 
-0.893224 -0.053018 1.524987 
-1.091861 -0.095898 -1.125899 
-0.262147 -0.474985 1.739652 
0.043503 -0.038547 -1.415516 
-0.134846 -0.754991 2.289712 
-0.249189 -0.338231 1.730426 
1.789673 -0.602532 -1.159576 
0.726524 -0.541475 -1.548578 
-1.306585 -0.184098 0.462172 
0.148348 -0.428327 -1.511363 
0.367578 -0.018362 1.290301 
0.400375 -0.764516 -1.701216 
-1.641051 -0.624031 1.255859 
-1.527526 -0.130540 1.073808 
0.288815 -0.803628 0.042538 
0.041703 -0.393912 1.729903 
-0.021607 -0.386643 -1.631246 
-1.034391 -0.511750 -0.117816 
1.412055 0.209481 0.709401 
1.876350 -0.532906 1.092957 
-0.132671 -0.797136 0.603484 
-0.223803 -0.822157 0.162559 
-0.345849 0.118744 -1.618478 
-0.218485 -0.821729 0.056007 
-0.691674 -0.412393 -1.628669 
-1.049263 0.147152 1.544501 
1.732334 -0.380268 -0.069197 
-1.594591 -0.130964 1.011272 
-1.184610 0.005636 -0.081871 
-0.030427 0.007206 -1.070141 
-1.122126 0.160477 -0.072484 
0.452350 -0.635171 -1.688845 
0.762634 -0.711394 2.096994 
0.476136 -0.570328 -1.597782 
-0.000366 -0.827990 1.262099 
-1.582553 -0.770756 1.286658 
0.249632 0.025425 1.484108 
1.001433 -0.816280 0.115618 
0.960839 0.038291 -0.444907 
0.350957 -0.586508 1.703387 
1.790066 -0.758100 -0.892219 
-1.631698 -0.528396 -0.069140 
-1.702422 -0.302679 -0.951594 
-1.087759 0.217836 1.968372 
-0.378167 -0.529829 1.754150 
1.446569 -0.771878 1.183413 
0.198207 -0.171500 -1.033692 
-1.106926 -0.082255 -1.724339 
0.113560 -0.625873 -1.705316 
-0.383170 -0.546453 1.740119 
0.318673 0.289986 -0.888773 
-0.293956 0.252035 -1.480139 
-1.365233 -0.146801 -0.111756 
-0.796741 -0.832385 0.175704 
0.334261 0.102632 -0.834096 
1.247876 -0.525177 -1.627905 
0.345779 -0.169589 1.449809 
-1.245063 0.025467 1.624377 
-0.204576 0.140357 -1.609275 
-0.159135 0.328695 -0.758301 
-0.270554 0.360266 1.310790 
-1.531154 -0.471433 -0.084996 
-0.128071 -0.600010 1.685145 
0.094001 -0.012778 -1.718173 
1.754134 -0.585779 -0.839245 
0.312582 0.102243 -0.823163 
-0.164984 -0.738162 2.236123 
1.243629 0.238331 -0.427842 
-1.574865 -0.434755 1.379338 
1.546223 -0.163160 0.199895 
-1.308776 -0.182165 0.463114 
-0.022567 0.028282 1.609981 
-1.313952 -0.225804 0.372895 
0.168696 -0.610680 1.746255 
-0.355382 0.039041 1.502290 
0.066444 -0.520415 -1.649232 
-0.276635 0.075469 1.321287 
0.367093 0.028848 -0.911265 
1.418521 -0.162448 -0.079091 
0.594011 0.398791 0.893071 
-1.443358 -0.406736 1.606170 
0.645136 -0.209935 -1.530128 
1.430470 0.073556 0.500102 
-1.607149 -0.238667 -0.065310 
1.354760 -0.023866 0.245693 
0.318142 -0.727251 -1.721707 
-1.134344 -0.460516 -0.060359 
-2.168111 -0.841540 0.121615 
-1.422833 -0.046260 0.715154 
0.054832 -0.154924 -1.531147 
-1.308985 -0.825775 0.200079 
-1.032738 0.375849 1.509482 
0.356174 0.024783 -0.697057 
1.877097 -0.835795 1.772378 
-0.313169 -0.290230 -1.615513 
0.492927 -0.360716 -1.590207 
1.763068 -0.815642 -1.293244 
-0.127650 0.056256 -0.711020 
0.536121 -0.847341 2.596803 
-0.971416 -0.046328 -1.319043 
0.745922 0.359084 0.898344 
-1.642287 -0.079396 -0.086074 
-1.116314 -0.527373 -0.112685 
0.852674 -0.168469 -1.591311 
1.485728 -0.532283 -1.372954 
0.781418 0.378476 0.920781 
0.952041 -0.170156 1.491325 
0.097249 -0.827596 -0.478752 
-1.495959 0.038585 0.173315 
0.844790 -0.688464 -1.687537 
0.927874 -0.785705 1.179299 
0.263087 0.031700 1.497025 
1.787364 -0.532940 0.783165 
-1.022054 -0.429983 -0.559660 
1.124527 -0.287954 -1.679120 
-0.635275 0.296067 1.669752 
1.463388 0.078286 0.831796 
0.295395 -0.849344 -0.973470 
-0.488008 -0.310170 1.749525 
-0.187912 -0.834425 -0.771589 
1.768364 0.037792 1.362379 
1.145255 0.090903 1.044537 
-1.515585 0.105859 1.093288 
-1.692986 -0.407223 -0.850519 
1.737281 -0.588971 -0.885094 
1.079277 0.011780 1.452281 
-1.108805 -0.490424 -1.652036 
-0.015599 0.007413 -1.673213 
-1.619501 -0.375832 -0.078882 
0.326168 -0.815134 0.120881 
-0.277969 0.055197 1.538432 
-0.752248 -0.839763 0.062206 
0.481539 0.353367 -1.043954 
-0.400913 0.097845 1.776375 
-1.470349 0.030807 0.860898 
-1.280454 -0.515435 -0.080500 
0.090553 -0.832678 -0.483646 
-1.182492 0.134433 0.930146 
0.151063 -0.520006 -1.645850 
-0.886243 -0.039827 1.537064 
0.563318 0.373636 0.895537 
-0.164251 -0.024838 -1.529681 
1.449460 -0.231268 -2.241692 
1.158184 -0.185041 0.146328 
1.300908 0.096936 1.231294 
-1.332698 -0.870838 -1.023789 
-0.214802 -0.254908 -1.537554 
-1.212906 -0.869796 -0.947108 
-0.605744 0.350183 1.344726 
-1.584872 -0.474458 -0.099251 
1.451231 0.089548 0.495047 
1.402048 0.006264 1.160075 
-1.203968 -0.161508 -0.081891 
-1.200905 0.222097 0.172858 
-1.684120 -0.360238 -0.676408 
0.901334 -0.246126 -1.549805 
-0.277047 -0.627888 1.709671 
0.223330 -0.063774 1.397569 
1.701276 0.007510 -0.883474 
-1.615720 -0.185674 -0.385501 
-1.527136 0.094538 1.223066 
-1.675549 -0.406951 -0.456427 
0.152876 -0.002106 -0.950830 
-0.028839 0.145791 -0.688166 
1.581053 -0.239983 0.950871 
0.330542 -0.139586 1.388827 
-1.501162 -0.476087 -0.081386 
-1.109607 -0.519414 -0.071579 
1.353729 0.004121 0.378393 
-1.482418 -0.178976 -0.243297 
1.241289 -0.184169 0.139080 
1.497399 0.038675 -1.338165 
-1.423483 -0.270627 -0.093165 
0.390401 -0.145027 1.479073 
-0.180741 -0.832403 -0.549287 
0.418441 -0.607414 -1.467085 
-1.211148 0.087713 0.835996 
1.286591 -0.003698 -0.236304 
1.311196 -0.547442 -1.800107 
0.845733 -0.854596 -1.036544 
1.193311 -0.884478 -0.007004 
1.773949 -0.727069 -0.661983 
0.966234 0.320112 -0.417046 
-1.692975 -0.228793 -1.061942 
0.227246 0.377362 -0.803169 
0.352663 -0.349591 1.787754 
-0.215928 0.286407 -1.013967 
1.568576 -0.135352 0.855246 
-0.046879 0.287989 -0.774651 
-0.056617 -0.794334 0.536541 
1.110565 0.092054 1.085599 
-1.509891 -0.510618 -0.276599 
1.283192 0.031714 -0.138416 
-1.466518 -0.406712 1.638477 
-0.001889 0.325004 -0.836680 
1.383992 -0.027891 -0.719446 
-0.271508 0.269839 -1.539480 
-1.275266 -0.808557 0.171727 
-1.420538 -0.213603 0.492513 
0.894099 -0.085781 -1.532509 
0.536687 -0.158505 1.520739 
-0.401033 0.257448 0.077324 
1.448196 0.070669 0.511953 
1.533065 -0.124846 0.434078 
-0.900712 -0.056310 1.519296 
-1.260279 -0.804197 1.283745 
-0.018236 -0.297174 -1.627860 
0.210879 -0.458557 -2.198182 
0.367859 -0.787655 1.226533 
-0.181866 -0.724026 2.172859 
-0.824312 -0.872878 -0.994305 
-1.691940 -0.427022 -0.890932 
0.853676 -0.159776 -1.574411 
-1.353249 -0.017790 0.620274 
-1.570104 -0.459888 -0.095050 
0.406390 -0.799833 -1.727412 
1.840514 -0.741582 0.458208 
0.725138 0.375273 0.903543 
1.069890 0.021636 1.538620 
1.390851 0.029121 -0.233175 
-1.636088 -0.531434 -0.068217 
1.482697 -0.365909 -1.374832 
-0.085928 -0.517812 1.777574 
-1.307339 -0.479243 -0.086909 
-0.290357 -0.168702 -0.719723 
0.225533 -0.058675 1.391167 
-1.239605 -0.285724 -0.093310 
-0.808263 -0.867268 -1.040527 
1.159425 0.067495 1.260980 
-1.414951 -0.265241 -0.090630 
1.584469 -0.134995 -0.135419 
1.727671 -0.342752 -0.846587 
-1.651501 -0.769447 0.890343 
1.339669 0.262947 -0.355346 
-1.698962 -0.176682 -1.057476 
-1.574873 -0.656101 -1.383774 
-1.317396 -0.836691 0.087637 
1.543962 -0.151940 -0.102242 
-1.029099 0.360840 1.477524 
-0.206690 -0.765484 1.242920 
1.033154 0.384339 -0.479649 
0.532609 -0.386238 -1.593120 
-2.263258 -1.198324 0.081143 
-0.109406 -0.358313 1.688798 
0.727558 0.363122 1.020290 
0.145045 -0.796170 0.523455 
1.812673 -0.545792 0.802426 
1.328785 0.366497 0.595205 
0.822508 0.024804 1.012795 
-0.077154 0.157637 -0.964534 
1.200786 0.000147 -0.366569 
1.008348 0.060992 1.265014 
1.557335 0.057737 0.332619 
-0.316177 -0.286715 -1.624174 
-0.187272 0.333443 -1.557204 
0.031158 -0.038252 -0.804307 
0.299948 -0.545642 -1.395417 
-1.028970 0.382882 1.523370 
-0.364740 0.044981 1.700960 
-0.210702 -0.826987 0.047711 
0.729340 0.088633 1.066275 
1.389439 -0.028046 -0.925201 
1.575863 -0.195252 -0.937738 
-0.292537 0.257528 -1.488002 
-0.642814 0.347315 1.524384 
1.172994 -0.144637 1.548608 
-1.780922 0.273608 1.603444 
1.674118 -0.117166 0.824057 
0.837758 0.042553 1.296917 
-1.227320 0.039658 0.197985 
-0.889814 -0.093529 1.546726 
-1.701043 -0.658020 -1.510773 
0.185733 0.043841 -1.085491 
1.017458 0.062933 1.258958 
0.280883 -0.186837 -1.384930 
-0.151287 -0.798718 0.599959 
1.426419 -0.243653 -0.992021 
-0.308206 0.234307 -1.616317 
0.864550 0.058302 1.345886 
1.132674 -0.018210 -0.701224 
-0.457898 0.067257 0.014475 
0.998924 0.374608 -0.383362 
-0.089121 -0.511371 1.754573 
-1.516070 -0.287158 -0.085785 
0.902973 -0.154515 1.513986 
1.108661 -0.054799 -0.741925 
-0.319326 0.063105 -0.727890 
0.714457 -0.400587 -1.566903 
-1.316286 -0.183216 0.343818 
-0.125799 -0.803176 0.610517 
-1.568543 0.055058 1.126622 
0.539628 -0.124420 1.518921 
-1.290125 -0.394650 -0.080825 
-1.691575 -0.453606 -0.919019 
-0.270472 -0.449207 -1.632056 
1.167483 -0.531402 -1.574167 
-1.288521 -0.471382 -0.075811 
-1.688248 -0.179574 -1.130104 
-0.348589 0.113251 -1.587451 
-1.292991 -0.470478 -0.082967 
-0.793828 -0.844530 -0.909111 
0.301089 0.259558 -0.856584 
-1.654233 -0.676988 -0.990164 
1.229314 -0.411025 -1.593582 
-1.109663 -0.374896 -0.074915 
-1.234747 0.290105 -1.702233 
0.973261 -0.080107 -1.562202 
-0.611575 0.340621 1.300552 
-0.118144 -0.838312 -0.840182 
-1.216722 0.106859 1.502438 
0.115118 0.380862 -0.940358 
-0.174204 -0.861258 0.112205 
0.892821 -0.258323 -1.540688 
-0.785271 -0.810412 0.123700 
-1.689497 -0.344934 -0.492560 
0.914224 -0.035180 1.517530 
0.225084 -0.604757 1.723339 
0.285547 -0.039478 -0.980004 
0.915773 -0.674275 -1.693064 
-0.428429 0.382830 1.340458 
-1.577993 -0.662059 -1.391733 
0.512314 -0.080665 -1.563585 
0.522996 0.244028 1.001052 
-1.328761 0.057618 1.615556 
-1.470541 -0.377552 -0.073600 
1.525204 -0.008848 0.880672 
0.137085 -0.800075 0.529290 
0.116993 -0.285298 1.719261 
-0.001229 -0.214253 -1.662247 
1.385268 -0.206793 -0.813731 
-1.288191 -0.153883 0.463794 
1.289954 0.310706 -0.207381 
-1.321574 -0.181950 0.343289 
0.750392 0.091394 0.831157 
-0.510036 -0.147801 -1.679702 
-1.500256 0.101845 1.086746 
-1.686846 -0.165105 -0.937984 
1.272121 -0.099757 0.153506 
0.321440 -0.013623 1.386788 
-1.257636 -0.288219 -0.104410 
1.473572 -0.056752 -0.266909 
0.615301 0.055935 1.416031 
0.004211 -0.154364 -1.612923 
-1.487476 -0.556261 -0.094482 
0.663092 0.063672 1.489577 
-1.594245 -0.581824 -0.009244 
0.676642 -0.488521 -1.617686 
-1.112892 -0.394495 -0.076190 
-0.130924 -0.765366 2.292198 
0.960064 -0.877539 -1.119846 
-1.215551 0.119102 0.465890 
1.273782 0.089982 1.257163 
1.441670 -0.231469 -1.438570 
1.395020 0.194359 0.669790 
1.171095 0.340811 -0.896826 
-1.619895 -0.154638 -0.096731 
-1.143668 0.150261 -0.251815 
1.493053 -0.229071 -1.449571 
-0.249245 -0.434863 -1.621038 
1.844404 -0.549909 0.739084 
-1.408546 -0.060522 0.623166 
-0.120451 -0.766704 2.290172 
-1.052196 0.191780 1.594499 
1.420267 0.210082 0.712271 
1.844213 -0.083459 1.085533 
1.783549 -0.844452 -0.677108 
-1.481266 0.067046 1.146437 
-0.885102 -0.047656 1.521813 
1.724586 -0.338077 -0.001823 
0.514247 -0.696147 -1.672073 
-1.346035 -0.867345 -1.008875 
-0.331276 -0.498527 1.734903 
-1.180464 -0.890546 -1.526967 
1.716662 -0.116514 0.724990 
0.172504 -0.512890 1.732269 
-1.020482 -0.290866 -0.554909 
0.570651 0.257710 1.049272 
-1.282330 -0.811437 0.137586 
-1.505639 -0.079794 1.067301 
-1.334085 -0.845463 0.085351 
-0.221519 -0.820049 0.137956 
0.512400 -0.321409 -1.597100 
0.492185 -0.534980 -1.507731 
-0.611985 0.383945 -0.021118 
-1.639712 -0.615962 0.058449 
-1.654337 -0.622570 0.017735 
1.036616 -0.136912 -1.602574 
-1.029549 0.387041 1.527270 
-1.419212 -0.269649 -0.101017 
0.829496 -0.797814 0.050205 
-1.641212 -0.771448 0.055612 
0.114816 -0.286736 1.710118 
1.769033 -0.353148 -0.848201 
-0.052776 -0.790761 0.860962 
1.669908 -0.201730 -0.931997 
-1.200562 0.106844 0.876596 
-2.288301 -0.882393 -0.517067 
0.533365 -0.067379 1.578091 
-0.802776 0.164121 1.552083 
0.586053 0.421024 0.461501 
1.123188 0.047209 1.291348 
-1.541009 -0.277628 -0.099654 
-0.157386 -0.803988 0.587946 
-1.468369 -0.235858 -0.074872 
-0.323994 0.154294 0.047550 
-1.119330 -0.372334 -0.089188 
-1.079867 0.320967 -1.670808 
-1.211529 -0.514094 -0.069476 
0.906879 -0.539128 -1.545416 
-1.497547 -0.475097 -0.090168 
-1.370172 -0.145445 -0.116095 
1.788881 -0.107953 0.458510 
1.465290 -0.094852 1.156307 
-0.797938 -0.868382 -0.937874 
1.743694 -0.387965 0.108493 
1.309396 -0.537252 -1.547249 
-0.249648 -0.862562 -0.963910 
-1.222534 0.148748 1.515303 
-1.523621 0.038351 0.949071 
0.318078 -0.816890 0.132868 
-1.611634 -0.240864 -0.064241 
-1.512771 0.025432 1.057373 
1.045737 0.020387 1.031970 
0.081553 -0.831872 -0.483959 
0.224079 -0.793870 0.794707 
-1.197701 -0.825713 0.178718 
1.546364 -0.220444 1.116187 
-1.462507 -0.378145 -0.069044 
-1.262239 -0.811630 1.208354 
0.607454 -0.089700 -1.540933 
-1.683275 -0.363137 -0.674723 
0.561269 0.374380 1.043258 
-0.466269 -0.314649 1.730637 
-0.642621 0.344486 1.523901 
0.896942 -0.773845 1.094334 
0.289332 -0.567862 1.716067 
1.728199 -0.818628 -0.474631 
0.118886 -0.678079 -1.730120 
-1.388850 0.276549 -1.577926 
-0.057119 -0.302502 -1.502676 
-0.636579 0.367689 1.541970 
1.609886 -0.208113 1.220192 
-1.690503 -0.652559 -1.059175 
0.132144 -0.804337 0.530386 
-1.688388 -0.622220 -1.420661 
1.348249 0.363801 0.594242 
-0.776976 0.063181 1.549911 
-1.693430 -0.445876 -0.908838 
0.432300 -0.053032 1.479159 
0.832674 -0.255254 -1.611788 
1.411990 0.050179 1.150760 
-1.399092 -0.381659 1.420328 
1.605185 -0.184389 1.258166 
-1.631744 -0.614020 0.062171 
-1.278151 -0.378389 -0.089435 
-0.088522 -0.343411 -1.646954 
1.248262 -0.412318 -1.608554 
0.283096 -0.861491 -0.995664 
1.672908 -0.204835 -0.700588 
1.407268 0.312122 0.647764 
1.526387 0.209538 0.693120 
1.313238 -0.008725 0.092681 
-1.364854 0.027788 0.250686 
0.417381 -0.364459 1.939473 
-1.320408 -0.186023 0.370086 
-1.280586 -0.517997 -0.078261 
-1.495154 -0.071346 1.081727 
-0.813257 0.410024 1.532400 
-1.063988 -0.465805 -1.157249 
-1.208523 0.045500 -1.286710 
0.906633 -0.059918 -1.618102 
-0.144063 0.188837 -0.902640 
1.457197 -0.158335 -0.765431 
0.071845 -0.662951 -1.693382 
-0.476998 -0.603198 1.785669 
1.675482 -0.839258 -1.261862 
-1.125535 -0.163467 -0.097859 
-1.691279 -0.415227 -0.882593 
1.618335 -0.258589 1.295218 
0.352829 -0.825088 0.017821 
1.541040 0.044072 0.439165 
1.173904 0.350238 1.658009 
-1.524241 -0.040818 1.093128 
-1.690417 -0.443681 -0.877699 
1.229205 0.139178 1.294727 
0.374249 0.381962 -0.020790 
-1.235492 0.150470 1.555983 
0.271311 -0.033918 -1.024261 
-0.064699 -0.790128 0.872257 
-1.376188 -0.319210 1.464094 
-0.256561 -0.829306 0.137417 
-0.665102 0.350522 1.309948 
-1.202091 0.038264 -1.240653 
0.916324 -0.146298 1.519215 
0.520246 -0.507305 -1.563160 
-3.123063 -0.855966 -0.262595 
0.712752 0.025668 -0.299187 
-1.548386 -0.163656 -0.083686 
-1.552905 -0.164494 -0.087900 
-1.376945 0.408525 1.538790 
-1.322210 -0.839453 0.190076 
-1.278467 -0.515683 -0.079503 
-1.498724 -0.297337 -0.073340 
1.310884 -0.775926 1.114801 
1.565220 -0.006726 -0.819768 
1.559351 -0.241694 0.952994 
0.332798 -0.334567 1.719535 
1.576221 0.088172 0.576266 
-1.319000 -0.836271 0.084254 
0.918578 -0.022620 1.527505 
-0.751479 -0.825174 0.175674 
1.314937 0.048261 0.251797 
-1.393333 -0.232563 0.371856 
-0.615870 0.333132 1.292400 
-1.485683 -0.130631 -0.047210 
-0.430139 -0.323754 1.861367 
-0.759488 -0.822703 0.082846 
-1.112011 -0.394035 -0.082500 
-0.751557 -0.824013 0.173837 
-1.631451 -0.048451 -0.748973 
1.833793 0.522755 0.615458 
1.282865 0.034672 0.283377 
0.844780 -0.005971 1.014099 
-0.446843 -0.516809 -1.629789 
0.187025 0.396491 -0.025487 
0.667778 0.277311 1.053359 
0.321581 -0.801411 0.157359 
1.373665 0.159417 1.370812 
-1.320119 -0.184850 0.392908 
-0.220765 -0.822443 0.049994 
1.221924 0.054859 -0.964223 
-1.329212 -0.195865 0.485682 
-1.003177 -0.526550 -0.547281 
1.572398 -0.052595 0.854212 
1.463464 -0.211335 -0.522220 
-1.306965 -0.181305 0.461037 
-0.885287 -0.100421 1.539573 
-0.987414 -0.042397 1.532586 
1.488484 -0.145454 0.991337 
-0.330299 0.338093 -0.751849 
-1.662923 -0.777021 0.897573 
-0.983934 -0.038781 1.555717 
-0.666090 0.353225 1.333214 
-1.614976 -0.130322 -0.084591 
0.220656 0.192942 -0.743417 
1.862306 -0.699669 0.965464 
-0.327229 0.324112 -1.082671 
-1.290243 -0.378382 -0.077078 
-1.223375 0.131583 1.512185 
-1.124124 -0.164306 -0.091299 
-1.344513 -0.200836 0.305210 
1.124818 -0.155377 1.387597 
-0.249421 -0.638466 -1.693582 
1.949819 -0.148560 -0.736241 
-1.472491 -0.235795 -0.078877 
-1.255416 -0.287103 -0.104540 
1.595662 -0.207745 0.902140 
-0.091943 -0.838755 -0.485164 
0.940153 -0.252219 -1.728640 
-1.107117 -0.468422 -1.353103 
-1.694683 -0.214724 -0.864002 
1.489515 0.216967 0.885966 
1.614635 -0.172816 0.172464 
-1.595130 -0.477658 -0.092907 
0.869132 -0.855036 -1.081621 
-1.195806 -0.172519 -0.051540 
-1.461254 -0.229704 0.370707 
1.266213 0.086419 1.267229 
-0.666425 0.054913 1.519741 
-0.176770 -0.840973 -0.581138 
-1.446917 -0.535679 -0.026331 
1.410242 -0.834430 0.059594 
-1.311938 -0.834055 0.190022 
-0.809184 -0.818862 0.040555 
-1.727032 0.114676 1.436181 
1.015588 0.061692 1.260238 
1.318102 0.043386 0.273746 
-1.377124 -0.141456 -0.135119 
-0.751992 -0.840955 0.058342 
-1.084359 -0.138984 -0.849582 
1.025609 -0.197842 -1.553310 
0.322626 -0.822499 0.018726 
-0.447247 0.354438 1.727713 
0.017186 -0.618200 -1.806170 
0.104768 -0.073550 -1.673525 
-0.078262 -0.803631 0.526274 
0.323113 -0.825838 0.061065 
-1.697074 -0.172020 -1.137794 
-1.087593 -0.134561 -0.876053 
-0.624504 0.013471 1.546257 
-0.419213 0.057408 1.551587 
-1.141480 -0.463820 -0.092326 
-1.624166 -0.602063 0.501407 
1.387341 -0.180131 0.035871 
0.396727 -0.059248 1.315739 
-0.226781 0.370815 -0.170212 
1.453053 -0.149511 0.384034 
-1.552433 -0.164703 -0.094390 
-0.613265 0.007556 1.570642 
0.345544 -0.805099 1.244435 
-1.071756 -0.860782 0.055024 
-1.312426 -0.830471 0.195659 
1.150351 0.093816 1.045541 
1.685471 0.029536 -0.740767 
-0.173724 -0.793023 1.263946 
1.474308 -0.044715 0.757450 
-1.410752 0.142404 0.915980 
-1.478107 -0.130806 -0.037573 
-0.031315 -0.816020 0.588724 
-1.413777 -0.246726 0.245641 
-0.482335 -0.611255 1.754962 
-1.222891 0.124879 1.520137 
0.334100 -0.031810 1.329941 
-1.499262 -0.062375 1.058500 
1.274092 0.047768 0.420924 
-1.565362 0.139946 1.401006 
-1.463524 -0.229556 0.365272 
-0.054310 -0.800979 0.591475 
-1.484543 -0.235208 0.410707 
0.514274 0.220215 1.010066 
-1.647112 -0.768089 0.920591 
-0.602505 0.301854 1.774948 
-1.459431 -0.230209 0.370330 
-1.309536 -0.178680 0.459418 
-1.108331 -0.518143 -0.062140 
1.181474 -0.125920 1.545408 
-1.696004 -0.212295 -0.908556 
-1.437636 -0.376597 -0.066378 
-0.210016 -0.828241 0.143884 
-1.116397 0.131217 -0.234440 
-0.718210 -0.799732 1.178838 
1.367019 0.365783 -1.113656 
-1.093417 -0.572569 -1.666084 
1.756602 -0.411619 0.088393 
-1.611620 -0.594970 0.503035 
1.116631 -0.011454 1.378984 
-0.843827 0.091898 1.521356 
1.400499 -0.173914 -0.532202 
0.316776 -0.822298 0.020086 
1.370236 0.061892 -1.299059 
0.423738 0.028960 1.476961 
-1.705167 -0.479563 -1.248723 
-0.438100 0.368049 1.735031 
0.541070 0.022050 1.552368 
-0.140781 -0.791281 0.613311 
-0.358764 0.043077 1.514813 
-0.323550 0.118693 -1.620901 
-1.449389 -0.220773 0.476224 
-1.032641 -0.472076 -1.251561 
-1.476790 -0.015076 1.105289 
0.772065 -0.261787 -1.570608 
1.230638 -0.001885 -0.764767 
-1.451805 -0.380527 -0.087829 
0.316741 -0.623692 -1.682456 
-1.479987 -0.199843 0.501388 
-1.693900 -0.453207 -0.926813 
-1.550111 -0.394457 1.465711 
0.423285 -0.404673 -1.553971 
-1.553220 -0.008459 1.462547 
-0.082455 -0.598277 -1.659678 
-0.476220 0.053840 1.409734 
-1.667172 -0.251194 -0.610532 
1.741668 -0.761720 1.040584 
-1.697176 -0.675903 -0.902016 
-0.795608 -0.864634 -0.934358 
-1.475416 -0.132324 1.136976 
-0.031131 -0.606666 -1.739818 
-1.476625 0.061915 1.142349 
-1.214765 0.383202 1.535169 
1.276997 -0.542410 -1.687049 
-0.460437 0.052739 1.333651 
-0.139349 -0.790603 0.603532 
0.116902 -0.848613 1.312362 
-0.315016 -0.293059 -1.627021 
1.620584 -0.213795 1.212174 
1.309391 0.035817 0.398893 
-1.033004 -0.440710 -0.552771 
-1.688573 -0.658828 -1.496908 
1.726461 -0.382867 -0.063003 
0.136059 -0.094685 -0.922769 
0.122603 -0.017555 -0.751758 
1.547482 0.221996 0.690323 
-0.806876 0.012334 1.536689 
1.300913 0.038969 0.274600 
0.265725 0.021227 -0.966561 
-1.703284 -0.628160 -1.332817 
-1.487048 0.041957 0.890029 
-1.528232 -0.030330 1.426175 
1.058964 -0.139289 1.439933 
0.349620 -0.259533 -1.558259 
0.116436 -0.287058 1.717011 
1.584980 -0.273017 0.879616 
-1.430865 -0.315067 -0.171003 
-0.367274 0.319108 -1.019160 
-1.460358 -0.232031 0.492012 
-1.411442 -0.270196 -0.082477 
-1.686771 -0.199274 -0.943290 
-1.263931 -0.809395 1.207308 
1.256066 0.347436 -1.230658 
-1.697756 -0.457470 -0.910333 
-0.511865 -0.635499 1.739876 
1.081380 -0.536727 -1.880772 
0.314649 -0.827133 0.063000 
1.602027 -0.042999 -0.117041 
-0.131254 -0.787851 0.811594 
-1.683235 -0.869527 -1.041094 
-0.616518 0.335860 1.294461 
-0.241178 -0.248322 1.726374 
-1.598557 -0.070297 -0.758209 
-1.061862 0.026454 1.608050 
-1.638144 -0.769507 1.285274 
-1.211177 -0.070884 -1.453617 
-0.811432 -0.002413 1.543596 
-1.055574 -0.469999 -1.266581 
-1.310751 -0.463643 -0.089387 
0.047784 -0.816772 0.330748 
-1.535614 -0.278253 -0.092149 
1.386284 -0.840039 -1.005204 
-1.046114 0.134861 1.532783 
-1.677546 -0.664567 -1.142618 
-1.692863 -0.214122 -0.865967 
-1.296430 -0.459597 -0.034178 
0.109013 -0.521338 -1.634015 
-1.472091 -0.015811 1.103116 
-1.701207 -0.659386 -1.366410 
0.221083 -0.067065 1.400125 
-1.361755 -0.332043 1.441171 
0.375773 -0.278200 -1.554989 
-0.507151 -0.308965 -1.624988 
0.977156 -0.252968 -1.505136 
0.206857 -0.069412 1.443439 
-1.741783 -0.695950 -0.366286 
1.115549 -0.157311 1.377659 
1.008069 0.027882 1.292046 
-0.578579 0.353544 1.523036 
-1.312496 -0.462221 -0.091876 
-0.430478 0.050009 1.610141 
-1.459234 -0.230125 0.368926 
-1.457882 -0.233851 0.493622 
-1.526619 0.030006 1.066177 
-1.416665 -0.379501 1.446786 
-1.476589 0.054438 0.889977 
-1.690173 -0.407629 -0.855597 
-1.116018 -0.029888 -0.060874 
-0.553591 0.153912 0.055013 
-0.885841 -0.043935 1.527858 
-0.764721 -0.838975 0.080708 
0.141574 -0.786153 0.869754 
-1.477345 -0.061889 1.118475 
-0.809307 -0.868251 -1.040179 
1.562188 0.086883 0.578896 
-0.308205 0.017935 1.469798 
1.220340 -0.518830 -1.584674 
-0.415634 0.061159 1.623673 
-0.621845 0.248492 1.572704 
0.406821 0.290340 -1.542844 
-0.647018 0.077501 1.519273 
0.290647 -0.044352 -0.971463 
1.545381 -0.743274 1.694225 
0.269847 -0.753976 1.211993 
1.013790 0.466884 0.948583 
1.008311 0.048383 -0.370995 
-0.206887 -0.302726 -1.597816 
1.296664 0.079891 -0.210883 
1.886099 -0.375359 4.582885 
1.794424 -0.686220 0.801886 
0.408418 0.300066 -1.038826 
-1.652829 -0.385513 1.527294 
1.011646 0.011367 1.018083 
1.725680 -0.638327 0.400796 
0.208430 -0.783973 0.798347 
-1.463120 -0.231615 0.486281 
0.411171 -0.427815 1.746784 
-1.225335 0.063729 0.142056 
0.608501 -0.684921 1.985264 
-1.710147 -0.451603 -0.956751 
-1.483068 -0.180464 0.497362 
1.300449 0.302594 -0.290912 
1.385050 -0.813344 0.089614 
-0.234557 0.052575 1.664953 
0.064699 -0.521381 -1.649754 
0.514745 -0.624671 2.760675 
-1.529819 0.025400 0.889487 
-0.811101 -0.870138 -1.013562 
-0.570158 0.363499 1.544955 
1.445037 0.075275 0.585240 
1.491025 -0.156030 -0.082185 
-0.709517 -0.811441 1.185797 
-0.629546 0.240971 1.704227 
0.568633 0.023553 1.339015 
0.406926 0.131113 -0.859293 
0.130873 0.115903 -0.802736 
1.311149 -0.003528 0.205582 
-1.277974 0.037598 -0.123067 
-0.613791 0.008602 1.568399 
-0.703215 0.021719 1.486279 
1.247947 -0.238100 -1.879941 
0.395945 -0.926513 -1.254093 
-1.497438 -0.230431 0.402435 
-1.037758 -0.024176 -1.305843 
-2.128309 -0.800443 0.623409 
-1.658688 -0.609935 0.877430 
-0.436448 0.064653 1.511648 
-1.201113 -0.162722 -0.081534 
-0.076324 -0.636331 1.921525 
-1.256158 -0.803142 1.191301 
-0.809290 0.155416 1.534494 
-1.560141 -0.399772 1.370623 
1.112323 0.135732 -0.574819 
-0.469331 0.078062 -0.001612 
-1.769514 -0.713412 -0.300052 
-0.365881 -0.515263 1.970561 
1.448345 -0.156918 -0.265287 
-0.335992 0.221848 -1.388635 
0.737299 -0.810817 -1.753759 
1.558850 0.002405 -0.789283 
0.030041 -0.058376 -1.436248 
-1.372236 -0.379069 1.656897 
-1.250500 -0.015838 -0.079517 
-1.371236 0.049959 0.159828 
-0.899391 0.345907 -0.548462 
0.201673 -0.073436 1.440018 
-2.232329 -0.825960 0.637826 
-1.460085 -0.544282 -0.077046 
-0.303431 0.203522 -0.747887 
0.091042 -0.481766 1.673796 
1.479969 -0.149707 0.988864 
-1.679090 -0.647287 -1.226605 
-0.363935 0.314011 -0.667756 
-0.435261 -0.041760 -1.619732 
-0.060647 -0.528645 -1.634520 
-0.146552 0.068531 -0.689158 
0.652901 0.399198 1.161972 
1.883570 -0.808798 0.335333 
-1.683431 -0.511100 -1.073531 
-0.217609 -0.518100 -1.647319 
-0.898892 0.310485 -0.478380 
-0.637750 0.360205 1.527312 
-0.422446 0.057767 1.691599 
-0.344612 0.247642 0.055983 
-0.068061 -0.176671 -1.257627 
-1.048715 -0.387645 -1.018061 
-0.438990 0.043291 1.599317 
-0.005127 -0.163301 -1.737576 
0.388196 -0.253618 -1.396254 
0.920135 -0.142505 1.518750 
0.707631 -0.568842 3.290284 
1.238843 0.002347 -0.081650 
-0.598853 -0.004605 1.548999 
-1.306009 -0.825945 0.109164 
0.945081 0.361984 -0.439999 
-0.691963 -0.558484 -1.587808 
0.329035 -0.815288 0.032420 
-0.599426 0.133911 -1.686210 
-1.443839 -0.400482 1.608916 
-0.444008 0.040066 1.596931 
-1.659261 -0.821944 0.027200 
-1.327064 -0.191106 0.406290 
-0.302507 0.107841 -1.551329 
-1.300237 -0.189612 0.353029 
0.136388 -0.785872 0.811810 
-1.064057 0.019151 1.584687 
1.175329 -0.146833 1.406804 
0.138130 -0.045036 -1.594504 
-0.386792 0.352225 1.739453 
0.154905 0.364860 1.296784 
0.981315 -0.888222 -1.172594 
-0.322604 -0.254896 -1.599607 
1.609280 0.067427 0.420161 
0.061097 -0.070778 -0.694945 
1.312938 0.046856 0.252211 
-0.290405 0.037577 1.500307 
-0.607276 0.328190 1.359048 
-0.509739 0.191984 0.075072 
0.336704 -0.393192 -1.607984 
-0.323346 0.166390 0.054737 
1.027313 0.017335 1.034968 
-1.693182 -0.336035 -0.932856 
0.641563 0.406523 1.153099 
-1.317538 -0.200464 0.487775 
-0.020840 0.145801 -0.701081 
-1.485039 -0.015308 1.096617 
1.268389 0.085782 1.264922 
-1.448354 -0.228406 0.197249 
-0.442671 -0.480079 -1.630906 
-0.069131 -0.568131 1.708963 
-0.614757 -0.072330 -1.676255 
0.722115 0.044764 1.563061 
-1.325720 0.051984 1.594385 
0.166286 -0.382190 -1.641551 
-0.529528 0.236601 0.096710 
-1.324791 0.055225 0.249252 
-2.167192 -0.785848 -0.082674 
0.613403 0.403961 0.893044 
-1.206174 -0.880528 -0.957962 
-0.540349 0.356358 1.705055 
0.597361 0.401030 0.894131 
-1.463369 -0.602287 -0.349497 
-0.768526 0.049843 1.555768 
-1.017100 0.032805 -0.922677 
-1.101147 -0.472411 -1.446885 
0.455952 0.156243 -0.799419 
-0.624532 0.262795 1.690948 
-1.602040 -0.477461 -0.100066 
1.826543 -0.783500 0.839695 
-0.080572 -0.766983 0.877476 
-0.665764 -0.393777 -1.651927 
-1.531925 0.032103 -0.133922 
-0.570919 -0.591869 1.634719 
-1.007983 -0.013885 1.538545 
-0.124191 -0.606058 1.732466 
-0.937023 0.213577 1.519826 
1.163784 0.075069 -0.407882 
0.649687 0.396957 1.159808 
-1.057021 -0.003865 1.545793 
0.716023 0.340042 0.966863 
0.208484 0.009808 1.342139 
1.045035 1.313178 -0.901795 
-0.518124 -0.631731 1.732091 
1.616395 -0.224045 1.194999 
0.021421 -0.178429 -1.823357 
-0.661588 0.065274 1.534238 
-1.685357 -0.323207 -0.714015 
0.198207 -0.156947 1.453777 
-1.615425 0.170517 1.430825 
-1.684266 -0.663444 -0.979422 
-0.062413 -0.076706 -1.165664 
-0.351858 0.132487 1.951728 
-0.552008 0.338701 1.684737 
-0.288722 -0.559843 1.772186 
-0.000944 -0.280012 -1.668607 
1.642851 -0.188393 -0.844456 
-0.409318 -0.004484 -1.626727 
-0.294865 0.324923 1.207382 
0.626165 0.147941 0.862618 
-0.502796 -0.365393 -1.627960 
-1.205769 0.011919 1.501711 
0.806049 0.112357 1.048520 
-0.142575 0.204279 -2.168885 
-1.075662 -0.568370 -1.653152 
1.071684 -0.249378 -1.680428 
-0.004807 -0.427157 -1.637957 
1.516467 -0.171326 -0.581926 
0.815926 -0.199453 -1.793952 
-0.691603 0.187212 -1.639761 
1.157777 -0.007674 -0.012776 
-1.749958 0.108733 1.264380 
0.141764 -0.794563 0.529799 
0.748680 0.100015 1.046019 
0.946559 0.119186 1.106922 
-0.161962 -0.846514 -0.598558 
1.506657 -0.164934 0.228638 
0.259360 -0.136051 1.488596 
-1.673598 -0.785350 0.885690 
-0.655794 -0.504540 -1.605021 
1.632059 -0.257856 1.302028 
1.452576 -0.056130 1.155915 
-0.622041 -0.448113 -1.616973 
-0.318602 0.045532 1.523972 
0.527673 0.227045 0.997981 
1.133694 0.028309 1.388883 
1.597054 0.050273 0.812607 
1.301006 0.292855 0.604466 
-0.068173 -0.593691 -1.682853 
-1.553675 -0.399058 1.453665 
-1.662437 -0.858622 -0.868968 
-1.311659 0.033964 1.610824 
-1.044305 0.103442 1.496775 
-1.511895 -0.214448 0.109658 
0.314795 -0.818509 0.126964 
-0.254197 0.044208 1.525428 
0.392623 0.299844 -0.883586 
-0.416891 -0.024481 -1.634715 
0.176186 0.411079 0.203497 
1.725851 -0.608222 1.157374 
-1.278218 -0.159763 0.468233 
-0.899162 0.339928 -0.519008 
-1.190716 0.332250 0.078233 
0.050430 0.060696 -0.688465 
1.129934 0.156255 -0.811897 
-0.990947 0.041976 -0.571570 
1.750047 0.078197 -0.674234 
-0.374125 0.066300 1.558652 
0.099899 0.357631 1.294602 
-0.380439 0.248232 0.089108 
1.115363 0.063556 -0.559328 
-0.141128 -0.781281 0.809995 
-1.215097 0.108601 -0.081808 
-0.534049 -0.994990 0.642213 
-0.113179 -0.899967 0.019716 
0.572591 -0.123367 0.862355 
-0.273735 0.052076 1.714610 
-1.048059 -0.018659 1.522408 
0.451678 -0.119531 1.398847 
0.527878 -0.260195 -1.586622 
0.239728 0.026192 -1.008172 
0.885256 0.344779 1.226375 
0.465479 -0.585371 -1.717571 
0.377920 -0.832519 0.004063 
1.158611 -0.286770 -2.026580 
-0.451659 0.337102 1.320653 
-0.224657 -0.865413 -0.995610 
-0.455507 0.052323 1.336427 
-0.215209 -0.569053 1.625352 
-1.935092 -0.746575 -0.218536 
-2.446161 -0.863992 0.601144 
1.335973 0.063283 0.612895 
0.786171 -0.718309 2.107258 
-0.479017 -0.338951 1.708445 
1.794363 -0.146771 -0.568426 
-0.764903 -0.831434 0.079007 
-1.068029 -0.469724 -1.286228 
1.105844 -0.021072 1.370805 
-1.499379 -0.128260 1.014104 
-0.671577 0.092233 1.735748 
1.603999 0.397262 -1.542509 
-1.299654 0.038348 0.488476 
-1.122707 -0.165218 -0.058039 
-1.111530 -0.514368 -0.061474 
0.349635 -0.778350 1.121698 
-0.126036 -0.285835 1.726821 
0.145338 -0.785423 0.868534 
0.402926 -0.518649 -1.817745 
-0.725145 0.025966 1.497966 
1.568046 0.080774 0.586078 
-1.254708 0.285639 -0.088749 
-1.106483 -0.401950 -0.047376 
-1.225604 0.035669 1.572065 
-1.017013 -0.426937 -0.542023 
-0.238671 0.068980 1.577700 
-0.989332 -0.037394 1.537860 
1.419357 -0.048968 0.378619 
0.103955 -0.768953 0.881153 
0.214091 -0.791661 0.598351 
-0.367901 0.071181 1.567273 
-1.334291 0.055870 1.640920 
0.940418 0.080268 0.759743 
-0.639849 0.135297 1.743892 
0.362080 0.569365 -0.109562 
-1.426963 -0.382175 1.442303 
-1.262370 -0.838553 1.240509 
1.068683 0.039436 1.309283 
-2.236410 -0.833664 0.607407 
0.940600 0.340581 -0.359106 
0.389211 -0.138895 1.480648 
1.148317 -0.030020 -0.714972 
-1.405145 -0.386448 1.434489 
0.909885 -0.131305 1.510324 
-0.343931 0.146963 1.325908 
-0.237232 -0.253765 1.723478 
0.080098 0.043765 1.342778 
0.683904 0.254944 1.199230 
0.102183 0.080371 1.295844 
0.214259 0.455622 0.091439 
0.334210 -0.766238 1.220658 
-0.398199 0.147584 -1.673499 
-1.561963 -0.399134 1.458608 
-1.540404 -0.408783 1.440784 
-1.290372 0.017694 0.315854 
-0.459875 -0.056383 -1.613844 
-1.671085 -0.456181 -0.913736 
-1.565141 -0.397541 1.457859 
-1.287992 -0.066697 0.618088 
-1.116303 0.367505 -0.080596 
-1.505532 -0.124404 1.011010 
0.395614 0.384292 -0.013396 
-1.508328 -0.615853 -0.461959 
-0.715396 -0.117667 -1.699226 
1.400398 0.024907 -0.459812 
-1.594279 -0.818955 -0.732881 
-1.660925 -0.860378 -0.875390 
0.301097 0.260084 -0.873283 
-0.424625 0.056675 1.551306 
-1.537709 -0.065725 1.073749 
1.802431 -0.618465 0.040227 
1.248487 0.000342 -0.418940 
-0.200708 0.051972 -1.298210 
-1.345679 -0.156928 -0.078844 
-1.252351 -0.116264 -0.120004 
-1.057016 -0.027701 -1.416054 
1.776191 -0.783999 0.796698 
1.261947 -0.230422 -1.692778 
-0.366670 -0.491818 1.731038 
-1.619007 -0.630863 0.089513 
-0.887157 -0.100274 1.531221 
1.587250 -0.178395 -0.834420 
0.772014 0.044620 1.486174 
-0.193488 -0.777280 1.244970 
-0.265491 0.041017 1.645237 
-0.269629 0.057605 1.714009 
0.887371 -0.775867 1.098836 
-0.020287 -0.034223 -1.298531 
0.307735 -0.124983 1.370326 
-0.604981 -0.007998 1.521045 
-0.896383 0.021218 1.506855 
-1.192156 -0.259808 -0.097307 
-1.675770 -0.783932 1.291095 
0.334154 -0.815686 0.048395 
-0.416865 -0.537666 1.743733 
2.009624 -0.134921 -1.187659 
-1.691049 -0.388255 -0.867526 
0.048543 0.044655 -0.734685 
-0.518329 -0.455511 1.736681 
-0.488260 -0.468678 1.745514 
-1.118137 -0.518646 -0.079209 
-0.830053 -0.006131 1.541288 
0.026223 -0.811282 0.370557 
-0.910585 0.362209 -0.573185 
-1.690659 -0.669773 -0.922892 
1.351991 0.375871 0.699654 
-0.483430 -0.611934 1.743979 
-0.296646 -0.559300 1.759020 
-1.152330 -0.462852 -0.065018 
-1.233793 -0.809758 1.235956 
-0.027750 0.142072 -0.686855 
-1.522542 -0.413528 1.640848 
-1.235758 0.039507 0.182921 
-1.258731 -0.826935 1.268249 
-1.289386 -0.030198 0.307377 
-1.314415 0.043676 0.596892 
-1.352149 0.091332 0.002208 
-1.588398 -0.435707 -0.810364 
-1.143627 0.354783 -0.537995 
0.565460 -0.593709 -1.916028 
1.259802 -0.021543 -0.818127 
-0.224362 -0.577058 1.748569 
-1.597335 -0.476071 -0.092831 
1.620530 0.028563 1.357828 
-0.755089 -0.826524 0.131656 
-1.021332 -0.407960 -0.555297 
-0.058059 -0.074665 -1.202165 
-0.442378 0.091320 -1.619181 
-0.392953 -0.325987 1.737650 
-1.141034 0.108997 -0.019580 
-1.342251 -0.214450 -0.088403 
-1.302758 -0.460561 -0.064264 
-0.764902 -0.828439 0.174882 
0.974491 0.035720 1.233819 
-1.137249 0.096683 -0.065559 
0.374493 -0.577592 1.716387 
-1.689630 -0.090916 -1.003530 
-0.194031 -0.846165 0.066006 
-1.545974 -0.401989 -0.039394 
-1.503801 -0.004689 0.896007 
-0.309165 -0.298500 -1.620188 
