0.181420 0.106520 1.354372 
-1.625700 -0.165740 0.278878 
-1.530291 0.394967 0.477401 
1.731057 -0.812342 0.866762 
-1.227642 0.081847 0.462937 
-1.709022 -0.472410 -0.630181 
-0.199724 -0.057178 -1.671758 
1.749763 0.189600 0.881870 
-1.550999 -0.148781 -0.076097 
1.863010 -0.115523 0.903439 
1.282695 -0.056486 -2.022868 
1.336810 0.392934 -1.133628 
-0.561499 0.065180 0.875053 
-1.840526 -0.717555 -1.117864 
0.383410 0.073048 0.718956 
0.527549 -0.028216 1.580524 
1.149127 0.063232 0.317824 
-0.135489 0.044746 -1.732401 
-0.603926 0.170120 0.422008 
1.591448 0.102669 1.810627 
-0.472210 -0.060649 0.363888 
1.380937 -0.846402 -0.133654 
-3.209258 -0.939301 -1.038317 
-0.001852 0.077226 0.905929 
-1.530374 -0.142235 0.211031 
-1.165815 -0.036011 0.184065 
0.274141 -0.852032 -1.275053 
1.865018 -0.335999 -0.864139 
0.356593 0.060161 0.898152 
-0.569761 0.122341 0.413811 
-0.888388 -0.228280 1.132171 
-0.708922 0.047922 0.666664 
-1.582648 -0.422796 0.712098 
-1.464233 -0.137967 -0.072103 
-1.454741 -0.135735 0.524468 
-0.781171 0.067831 1.691554 
0.028126 0.269202 -1.334095 
-1.027023 -0.584945 -0.741301 
-0.497147 0.157531 0.364600 
-0.361236 0.156261 0.053284 
-0.212149 -0.075639 -1.704603 
0.335214 0.041812 -1.503259 
-0.600627 0.272572 0.396594 
-1.659601 -0.186514 0.506563 
1.144659 0.214647 0.239204 
1.860239 -0.577816 -1.174466 
0.602401 0.039925 1.368881 
1.423046 -0.630824 -1.562549 
-1.275005 -0.054903 -0.148563 
-0.680871 -0.245133 1.004687 
-1.662527 -0.335041 0.577856 
1.449738 0.080940 0.026851 
0.180677 -0.864506 0.793385 
-0.367453 0.157849 0.045443 
-1.497245 0.131114 -0.098925 
1.024909 0.158129 -1.326695 
1.788310 -0.032526 0.034777 
0.470188 -0.040412 1.798443 
0.812321 0.108476 -1.851841 
1.469276 0.092537 -0.841542 
1.009133 -0.124039 1.668014 
-1.137023 0.151690 -0.492784 
1.056478 -0.475788 -1.266045 
1.056758 0.386138 1.517984 
1.619727 -0.462172 -1.709333 
-0.486352 -0.074477 0.368043 
0.124347 0.415026 0.217915 
0.143933 -0.861795 0.657796 
-0.700735 -0.402984 0.958467 
-1.545495 0.345482 0.641529 
-1.768511 -0.688951 0.489773 
1.854638 -0.818674 1.108085 
0.268496 0.069736 1.790398 
1.226689 0.135149 -1.058811 
1.361654 -0.852675 -1.187062 
-0.072918 0.028385 1.410491 
-0.614575 0.130989 0.472407 
0.569667 0.412275 -0.020990 
1.512827 0.080392 -0.428052 
0.171874 0.090761 -0.171545 
1.691245 0.079113 0.584152 
0.419405 0.076312 0.558881 
1.721326 0.000938 -0.051756 
-1.470392 -0.505459 0.516697 
0.340186 0.121185 -0.211944 
1.411823 -0.845750 -1.182072 
-0.495364 0.175561 0.412466 
-0.513366 0.209069 0.344310 
1.849712 -0.864307 -1.268772 
-0.873655 -0.289770 -1.109735 
-1.431931 -0.063954 -0.175966 
-0.661360 0.040008 0.813993 
1.843800 -0.003427 1.262035 
-0.716541 0.064580 0.690052 
0.294086 0.045803 1.621151 
-1.034201 -0.021677 -0.619124 
-1.639051 -0.341451 0.590988 
1.818300 -0.569137 -0.944763 
0.656918 0.056417 -1.250866 
-1.461783 0.016914 0.038021 
0.712877 0.051350 1.760853 
1.268369 0.009442 1.752274 
1.631150 -0.443373 -1.690352 
-1.511903 0.078189 -0.111691 
-0.926389 0.033132 0.395597 
0.855367 -0.859083 -0.030095 
1.695589 -0.804244 -1.220328 
1.876116 -0.812568 1.141124 
0.988275 0.403507 -1.304639 
0.218839 -0.866534 -1.252433 
1.803229 -0.439761 1.321335 
-0.850368 -0.379784 -1.041769 
1.671993 -0.116998 0.572960 
1.123323 0.097688 1.702575 
-1.505072 0.022884 0.036392 
0.200915 0.062113 0.719698 
0.166666 0.406388 0.183871 
1.503697 -0.001679 -1.630877 
-0.114431 -0.119127 1.666043 
-1.630207 -0.169021 -0.371136 
-0.117253 0.390268 0.487254 
1.237365 -0.031866 -1.135575 
1.520737 0.063988 -0.164222 
0.410766 0.406591 0.506595 
-1.660820 -0.339930 0.588586 
0.451193 0.455193 1.394083 
0.563879 0.432611 -0.025667 
-1.602927 -0.460064 0.622303 
-0.023469 0.253990 -1.270881 
-0.096796 0.079862 1.687698 
1.046458 0.130567 -0.008224 
-0.980326 -0.253764 -1.136320 
1.346308 -0.767783 0.031843 
-0.703110 -0.070724 -1.737433 
-1.328107 0.315396 0.385616 
0.427308 -0.062847 1.775445 
-1.580532 -0.407996 0.692831 
-0.057556 0.044996 1.424113 
1.182490 0.091552 -0.988736 
0.317929 0.058431 0.544139 
1.342864 -0.842629 -1.173708 
-1.116170 -0.505645 0.408773 
1.468984 0.290329 1.115709 
-0.720484 0.566611 -1.288485 
1.365004 0.047850 1.619388 
-0.113764 -0.063334 -1.951374 
1.344127 -0.849325 0.981120 
-0.080589 -0.985016 0.628197 
0.135143 -0.892274 0.571139 
-1.735811 -0.202929 0.544790 
0.673352 0.025497 0.805257 
0.196776 -0.000642 -1.678958 
1.543865 0.063802 -0.930793 
-0.562395 -0.900617 -0.095681 
-1.892496 -0.712176 -1.143666 
-1.475034 0.015058 0.037523 
0.143270 -0.887580 0.897646 
-0.792544 -0.212398 -0.593270 
-1.739164 -0.059607 -0.589910 
-2.303831 -0.993249 0.002367 
1.765528 0.362624 -0.239599 
-0.115168 -0.909558 -0.918710 
-1.644699 -0.207079 0.486719 
-1.458619 -0.915828 -0.084163 
-0.748673 -0.033685 -1.747348 
-0.045635 0.235260 1.605062 
-0.172160 -0.879386 -0.659171 
-1.088565 -0.493038 0.669975 
-1.450485 0.013458 0.038113 
1.327252 0.364898 -1.213351 
-0.517136 0.138256 1.780306 
-0.721416 -0.522225 1.704185 
-1.588694 -0.210057 -0.098309 
-0.273091 0.389288 1.450533 
-1.501994 -0.921385 -1.166417 
-1.632901 -0.283374 0.336869 
-2.403636 -0.943551 -1.906555 
-1.850202 -0.704349 0.882780 
-0.673490 -0.071389 -1.598283 
0.461739 -0.025401 1.631936 
-0.052982 0.359158 1.319304 
-0.399378 0.066110 1.828824 
-1.245072 0.182352 -0.409004 
-1.610666 0.196531 0.590475 
1.881299 -0.547477 1.213892 
0.722273 0.064421 -1.809684 
1.486095 -0.009089 0.035393 
1.099191 0.146548 0.350660 
1.573359 0.005631 0.066388 
-0.116272 0.068196 0.842281 
0.405833 -0.062926 1.822474 
-0.588793 0.248945 0.362869 
-0.655434 0.320349 -1.597790 
1.033854 0.093842 -1.700726 
1.653887 0.121871 1.132868 
1.507641 0.093491 0.834089 
0.541174 0.051762 0.855415 
-1.626426 -0.201336 0.481036 
-1.749281 -0.201992 0.627035 
-1.603190 0.191607 0.583675 
0.874977 0.085287 -1.534569 
-0.678731 0.132943 0.485400 
-0.558455 -0.882938 -0.063114 
-0.938588 -0.023515 0.837301 
0.223439 0.016189 -1.742060 
-0.950037 -0.121012 0.871258 
0.532817 -0.006642 1.393252 
0.632656 0.017877 0.797687 
-0.931829 -0.491658 0.395882 
1.502676 0.090109 0.593951 
-0.787383 -0.333252 0.858711 
0.257395 -0.875513 -1.289623 
1.222054 -0.029547 1.344454 
0.248531 -0.880704 1.075612 
1.802562 -0.721982 -1.315505 
-0.957285 -0.265430 0.723993 
1.377081 0.172257 -0.574059 
1.841232 -0.065379 0.883701 
1.796131 -0.755480 0.896246 
1.831804 -0.769976 0.910997 
-1.633792 -0.181256 0.257216 
-0.148154 0.080938 -1.291904 
1.768617 -0.009079 -0.961873 
-0.339988 0.058461 1.465906 
-0.133711 -0.106040 1.676924 
-0.338605 0.055568 1.467845 
1.198090 0.029827 -1.761193 
0.453570 0.178597 -1.503059 
0.192783 0.352437 -1.382932 
-0.385187 -0.552561 1.683903 
-1.601023 -0.455216 0.572410 
-1.499670 -0.494931 -0.102746 
0.174362 -0.856999 0.566810 
-1.011693 0.011646 -0.631225 
1.267706 0.079318 -0.969892 
1.283823 0.043723 0.034488 
-1.729226 0.371556 0.554910 
1.431936 -0.848091 -0.089817 
-1.616177 -0.085786 0.511830 
-1.604965 -0.167389 0.346516 
-0.692361 -0.052719 1.662703 
-1.716635 -0.369161 0.632335 
0.745160 0.058849 0.876848 
-1.371230 -0.874747 1.130776 
1.281072 0.027121 -0.065955 
0.874202 0.100183 -1.571696 
1.401319 0.083330 -1.311579 
1.843328 -0.815983 0.474645 
0.335549 0.071436 0.537419 
-1.450056 -0.907770 -1.164464 
-0.269893 0.414089 1.508698 
1.779784 -0.799035 1.256702 
0.324610 0.071579 0.530717 
-0.875953 -0.367699 0.701639 
-1.727144 -0.859123 1.289580 
1.694599 0.062833 -0.307098 
-1.600174 -0.459469 0.640070 
-0.585732 -0.495894 -0.640545 
-1.564600 -0.025337 0.042712 
0.097280 -0.861158 0.473528 
0.893265 -0.810016 0.222294 
-1.755804 -0.819655 0.015177 
-1.601457 -0.463192 0.572404 
1.606338 0.096859 -0.640850 
-0.886292 -0.283266 -1.029285 
0.092758 -0.869103 -0.952920 
-1.550593 -0.150861 -0.072471 
-0.048977 0.073408 -1.388913 
-1.340333 0.036596 -0.344597 
-0.386589 -0.496612 1.593571 
-0.687140 0.410094 -0.655074 
1.830387 -0.550700 0.454887 
-0.724804 -0.190268 0.977071 
-0.037684 0.061127 0.710064 
-0.273614 0.396282 1.458087 
0.329893 0.078480 0.537124 
-0.976616 -0.121549 0.873785 
1.202130 0.036659 1.760870 
-1.749357 -0.693094 -1.165592 
1.541375 0.037923 0.875151 
-0.996554 -0.174512 0.802762 
-0.267701 -0.849373 -0.182183 
-0.585167 -0.047700 -1.747949 
1.248890 0.131059 0.147935 
0.337379 0.261701 -1.427821 
-1.421802 -0.195347 -0.356926 
-1.710067 0.269917 1.519488 
1.879299 -0.583642 -0.541876 
-1.760301 -0.054479 -0.629846 
1.848808 -0.580192 -0.548375 
-1.589813 -0.051180 0.692351 
1.558451 -0.107629 -0.250948 
1.871651 -0.587998 -0.847779 
0.749213 0.086746 1.454724 
0.277215 -0.864964 -0.019296 
1.858313 -0.097625 0.534016 
1.472142 0.408099 -0.660729 
-1.456664 -0.895016 -0.152901 
-1.758927 -0.082955 -0.953211 
1.855600 -0.100870 0.839718 
-1.786324 0.175611 0.385254 
0.195901 0.066525 0.835626 
-0.165723 -0.508021 -1.605335 
-0.986621 -0.155858 0.830924 
1.013595 0.001592 1.742945 
0.124466 0.377038 -1.245039 
1.257079 0.137026 0.431077 
1.442915 0.102574 -0.470739 
-1.416003 0.277683 0.417521 
1.636767 0.066493 -0.775028 
1.801693 -0.613811 -1.211807 
-2.265849 -0.927651 -1.240395 
1.034603 0.148174 0.177948 
-1.730947 -0.651548 -1.625565 
-0.032419 0.062914 0.705509 
0.878022 -0.865109 1.089746 
0.998541 0.086253 0.508589 
-0.088374 -0.847864 -0.606251 
-1.784833 -0.221913 -1.080881 
0.992928 0.100407 0.044956 
1.003281 0.067245 -1.495453 
-1.434950 -0.914245 -1.182352 
-0.310180 -0.918933 -1.349230 
-0.198780 -0.874693 -0.656410 
-1.443106 -0.887289 -0.060190 
0.632487 0.052685 -1.546938 
0.669741 0.065224 1.364078 
-1.606972 -0.298275 0.630899 
1.323090 0.088208 -0.981010 
0.023023 0.232848 -1.468609 
1.254998 0.266271 -1.184863 
1.703400 0.013168 -0.050071 
0.520256 -0.044632 1.528217 
-0.393392 0.092921 1.731484 
-1.743186 -0.525750 -0.844678 
-0.744230 -0.078878 0.202493 
1.419894 -0.841922 -0.152291 
1.804075 0.200544 0.290623 
0.283355 -0.866719 1.003025 
1.488104 0.308579 0.612119 
0.122417 -0.934276 0.000508 
1.125054 0.107946 0.079253 
-1.562074 0.025346 -1.744418 
1.213841 0.127461 0.141484 
-1.572584 -0.016960 -0.602072 
1.380539 0.036161 1.744805 
1.512200 0.345153 0.650271 
-1.563127 -0.151081 0.130000 
-0.948922 -0.342250 0.827300 
-0.746045 -0.521911 1.722270 
1.532648 0.083335 -0.412394 
-1.759057 -0.200869 -0.590839 
0.875282 -0.832895 0.187230 
1.549271 0.006109 0.939471 
-2.521548 -0.922398 -0.102906 
-1.549417 0.294793 0.331243 
0.278001 -0.863267 1.107231 
0.284117 0.049454 1.607455 
1.760748 -0.453776 -1.668380 
-0.936204 -0.357303 0.665859 
1.321700 0.078556 -1.515986 
-0.135169 -0.882476 0.514119 
-1.372894 -0.035954 -0.591786 
0.198924 0.061350 1.723486 
1.557410 0.081606 0.486448 
0.705326 0.072459 1.407885 
-1.762800 -0.292889 -0.825675 
1.818338 -0.111843 0.426313 
-0.903712 -0.026489 0.827069 
-0.995285 -0.224683 -0.890662 
0.442833 -0.012876 1.761963 
-1.767359 -0.419629 -0.953945 
-0.665182 -0.522537 1.018917 
0.354419 -0.821314 -0.043599 
-1.516486 -0.457925 0.602555 
0.635625 0.030779 0.883884 
-1.765668 -0.488570 -1.251854 
1.333604 0.055416 -1.246809 
-1.646556 -0.117824 0.390402 
-0.185092 0.390368 1.214995 
-1.746935 -0.491192 -1.331581 
0.717766 -0.000904 -1.275515 
-0.601515 -0.017838 1.037639 
0.279961 -0.868199 -0.035629 
-0.698369 -0.004901 0.890404 
0.664842 0.038507 1.452399 
-0.110577 0.396838 1.250208 
0.217198 0.063894 1.732686 
1.134542 0.074772 -1.703529 
1.033808 0.101655 0.540570 
1.435565 -0.867052 0.995678 
1.827045 -0.338344 -0.841344 
0.680481 0.030098 0.808819 
1.552387 0.083070 0.477500 
0.272492 0.375394 -1.442853 
-1.611239 0.206504 0.397872 
-0.035303 0.063965 0.719938 
1.845852 -0.806972 1.108222 
1.407749 0.015447 -0.096159 
-1.464422 -0.897401 -1.278885 
-1.566424 -0.405231 0.042446 
1.709511 0.031161 0.375292 
1.461565 0.181445 -0.723012 
1.588747 -0.854247 -1.820207 
0.263982 -0.860865 -1.198583 
-1.050357 0.053810 -1.441931 
1.816298 -0.441911 1.398904 
-1.431604 0.069601 -0.809394 
0.378486 0.034966 1.269228 
0.369241 0.092733 0.573001 
0.386350 0.070087 0.563065 
-0.263789 0.065507 1.515508 
-0.571367 -0.902465 -0.043756 
-0.671608 -0.534590 0.992428 
-1.601196 -0.163119 0.349551 
1.131017 0.139536 0.098018 
1.797364 -0.241644 -0.266892 
0.277266 -0.861055 -0.120584 
0.818039 -0.775200 0.207073 
1.187989 0.005296 1.571709 
-0.390253 0.049617 1.573210 
1.063949 -0.077882 1.764076 
-2.133106 -0.772922 0.412302 
-1.759684 -0.644953 -1.312713 
0.459319 0.046915 1.302358 
-1.509071 -0.497324 -0.102927 
0.946476 0.061741 -1.542326 
0.285064 0.040233 -1.512493 
0.317241 -0.835617 -0.098602 
1.531862 0.072719 -1.333740 
-0.190634 -0.868929 0.757375 
-1.751090 -0.127200 -1.184573 
1.017666 0.412309 -0.032543 
-0.110553 0.387281 1.236003 
0.346074 0.054621 1.806573 
-0.789728 -0.217277 -0.614715 
-1.501915 0.075274 -0.102944 
-0.426686 -0.520703 -1.589352 
-1.341587 0.322071 0.619868 
0.714527 0.078859 1.629712 
0.378501 0.078773 0.537488 
0.493546 0.388744 -1.252291 
0.257800 -0.882803 0.994095 
-1.753668 -0.671665 -1.326201 
1.575968 -0.047568 -0.127495 
1.488782 0.069461 -1.311448 
-1.773285 -0.861119 0.494830 
-1.773204 -0.681203 -1.478432 
1.880023 -0.708484 1.089566 
0.107190 -0.859662 0.846159 
-1.066669 -0.064397 -1.594526 
0.324418 0.072620 1.555959 
0.884218 -0.840671 0.183577 
-0.917866 -0.091141 0.899119 
1.105845 0.115280 0.389535 
1.581014 0.054551 -0.523729 
1.227509 0.149729 -0.115639 
-0.790197 -0.015520 1.766770 
-1.095990 0.047784 -0.464361 
-1.651932 -0.412045 -0.744171 
1.540968 0.083927 0.467843 
1.733965 0.032282 0.522197 
-1.529207 -0.155772 -0.076811 
1.234304 0.102179 0.942418 
1.267412 0.082412 -0.959521 
0.128169 -0.102989 1.689378 
1.460704 -0.848097 1.102088 
0.340861 0.056285 1.813394 
0.673492 0.048660 1.449252 
1.205816 0.224664 0.367743 
1.589471 -0.480827 -1.671868 
1.428856 0.070994 1.647708 
0.392740 0.374877 -1.450444 
0.951211 0.099960 1.794319 
1.442176 0.077370 0.032390 
1.504424 -0.000988 -1.648582 
-1.436468 -0.902242 1.029153 
0.638509 0.010369 0.892801 
-0.156019 -0.512971 -1.585035 
0.330638 0.061563 1.555499 
0.730591 0.136891 -1.516916 
1.255771 -0.131890 1.739092 
-0.706934 -0.279795 1.716817 
1.577677 0.079315 -0.843414 
1.575871 0.076800 0.914898 
-1.365978 -0.008667 -0.587157 
0.416295 -0.063143 1.469981 
-1.402353 0.181022 -1.781879 
-0.712449 0.055636 -1.700171 
-0.181281 -0.905693 -0.820027 
1.737776 -0.099511 -0.176045 
0.283239 -0.867750 1.114960 
0.313768 0.042755 -1.571901 
-0.251950 0.366238 -1.725658 
1.595884 -0.052105 -0.831569 
1.707429 -0.002499 0.823718 
1.351935 0.064447 -0.588704 
1.106349 -0.009926 -1.609692 
-0.430637 -0.073478 -1.666333 
-0.466536 0.059595 0.965226 
0.643055 0.082245 0.937698 
-0.708526 -0.382927 0.669599 
1.382522 0.062021 -1.283767 
1.878996 -0.782916 -1.237729 
-0.854785 -0.382133 -1.048231 
0.534864 0.032737 -1.480508 
-0.268188 0.196016 -1.449397 
-0.664334 -0.013017 1.128671 
-1.411492 -0.194663 -0.357326 
-0.692798 -0.387993 0.659965 
-1.430819 -0.904343 0.993451 
-0.479177 0.053478 0.018261 
-0.710650 -0.379088 0.677711 
1.257380 0.029770 0.012732 
-0.890502 -0.901692 -1.252108 
-0.640210 0.236651 -1.693079 
1.204324 -0.095134 1.356609 
0.603937 0.053228 0.942423 
1.648107 -0.024670 -0.464443 
-1.536541 0.109622 0.329175 
-0.614621 0.334319 -0.648857 
0.420187 0.054560 -1.584993 
0.017035 -0.025937 0.829929 
-1.685448 -0.673580 -1.191604 
0.177639 -0.170782 -1.677351 
-1.742064 -0.296897 -0.849688 
0.108328 0.393856 -1.252926 
-0.387596 0.061363 1.600506 
0.643605 0.024380 0.805777 
-1.026896 0.057754 -1.434561 
0.462445 0.003150 0.867515 
-0.710313 -0.529127 1.011491 
1.535993 0.075679 -1.344146 
1.516355 0.088185 -0.598797 
-1.786563 -0.681363 -0.850391 
-1.461756 -0.908655 1.057439 
-1.847735 -0.869973 1.273031 
-0.150628 0.002242 1.718798 
-0.687728 -0.747296 0.323755 
1.744487 -0.815242 -0.898111 
-0.652006 0.423193 -0.015606 
1.816829 -0.439753 1.324689 
0.484606 -0.027189 1.513574 
1.620251 0.070905 -0.757596 
0.358552 0.067944 0.695694 
0.791023 0.142441 -1.515924 
1.115784 0.148406 -0.014305 
0.359311 0.013871 1.767332 
1.155427 0.037572 0.165892 
-1.867948 -0.705137 1.344793 
0.304006 0.043543 -1.539348 
-1.591978 -0.177883 0.006704 
-1.611723 0.350941 0.417293 
-0.117617 -0.874624 0.842163 
-0.175721 -0.862554 -0.873086 
-0.307666 -0.867998 -0.143062 
-1.831779 -0.708879 1.290188 
1.874910 -0.097859 0.525286 
1.008466 0.090448 0.558374 
1.686421 0.015921 0.562878 
1.432494 -0.835700 1.002122 
0.949539 0.090391 1.746224 
1.453348 0.052289 -0.976560 
0.051789 0.057162 1.683332 
0.311600 0.068751 1.526981 
-0.319506 -0.885471 -1.187041 
-0.294175 -0.870744 1.028843 
-1.761242 -0.604279 -1.639421 
1.570865 0.036603 -0.340408 
0.665538 0.034841 0.835906 
-0.147889 0.035879 -1.628658 
1.255542 0.266131 -1.184584 
1.615873 0.114769 -1.355237 
1.427681 0.001536 1.779440 
-1.788371 -0.204022 -1.633841 
0.636238 0.389549 -1.335818 
-1.598156 0.000503 -1.815987 
1.857170 -0.587872 -0.835245 
1.458166 0.054971 -0.083442 
1.867978 -0.737890 0.819932 
-0.177264 0.391801 1.218586 
1.784629 0.061862 0.240395 
-1.402248 -0.923651 -0.098299 
1.457563 0.021052 1.812473 
-1.746167 -0.397818 -1.138247 
-0.244740 -0.060105 -1.742391 
1.268718 0.000942 1.761976 
-0.864956 -0.354377 -1.045247 
1.084163 0.113978 0.079733 
1.689816 0.062323 -0.306014 
1.762369 -0.005926 -1.285565 
-1.776502 -0.707403 -1.179845 
-1.494442 0.102205 -0.084482 
-1.513976 0.017572 0.040868 
-0.412808 -0.348913 1.683142 
1.393451 0.014541 -0.090776 
-1.606742 0.304056 0.915297 
0.537868 -0.030198 1.570361 
0.819567 0.529815 -1.816912 
-0.748646 0.013073 0.874126 
-0.410527 -0.578239 1.776446 
-0.236947 0.071954 1.475940 
0.992162 0.086812 1.656309 
0.180823 -0.864479 0.793638 
1.727355 0.024035 0.538640 
1.740916 -0.094549 -0.200500 
0.470332 -0.088521 1.704057 
1.420266 0.042033 -0.959472 
0.824953 -0.797394 0.215128 
-1.605017 -0.206855 -0.388946 
1.462482 0.073833 1.735862 
-0.658431 -0.053785 -1.701157 
-1.536310 -0.863296 -1.498410 
-1.734779 -0.677390 -1.279048 
1.570846 0.070182 0.822364 
1.631924 0.091723 0.750723 
1.870158 -0.106202 0.901714 
-2.190071 -0.934867 -1.699561 
-0.301557 -0.885199 1.014028 
-0.613120 -0.500607 -0.625480 
-0.677638 -0.390226 0.959755 
1.840747 -0.743216 0.889590 
-1.741718 -0.691670 -0.028582 
0.247823 0.339544 -1.342807 
-0.264076 0.013445 1.780876 
1.075235 0.130431 1.858206 
-0.279284 -0.887558 1.057667 
-0.893599 -0.876328 0.003530 
-0.998087 -0.514333 -0.639778 
0.311290 0.070713 1.529276 
1.850502 -0.744368 -0.662815 
-0.216056 0.031012 -1.475568 
0.294546 -0.863392 1.024080 
-0.161106 -0.900493 -1.193397 
-2.702586 -0.953336 1.095546 
1.571474 0.354729 1.433878 
1.846689 -0.851292 0.463871 
-0.513013 0.343969 -1.506670 
1.517546 0.083407 -0.409165 
-1.775085 -0.188231 -0.939220 
1.393474 0.062132 0.917470 
1.107402 0.114592 0.387022 
1.952439 -0.773954 0.817141 
0.627711 0.044688 1.314597 
-0.622186 0.048937 -1.240593 
-0.631439 -0.503952 -1.193291 
-0.674382 -0.929347 -0.155892 
-0.717699 -0.282326 1.723363 
-0.150399 0.095124 -1.369709 
0.852029 -0.849716 1.129832 
-1.660274 -0.335833 0.577711 
1.898627 -0.549920 0.773546 
-0.606088 -0.876852 -0.015721 
1.373765 0.014799 -0.075723 
-0.276188 0.063583 1.512031 
-0.491298 0.303046 -1.437771 
1.721228 -0.006151 0.019643 
1.763848 0.353431 0.961380 
1.890379 -0.323730 0.863682 
-0.688219 0.016464 1.232085 
1.794258 -0.245234 -0.275628 
1.024754 0.130119 -0.012183 
1.137782 0.115587 0.001276 
-2.041607 -0.725427 1.311276 
-0.668821 -0.280770 1.003429 
1.802608 -0.126403 -0.917482 
1.034799 0.009690 0.399197 
0.181525 0.103768 1.344143 
-0.238316 0.064670 1.353667 
1.759583 0.024397 0.867807 
1.262243 0.270260 -1.188744 
-2.175166 -0.903838 1.019452 
-0.891594 -0.898202 -1.267668 
-0.007086 0.402135 -0.241620 
0.637498 0.380137 -1.439821 
1.805315 0.446994 1.152188 
-1.549049 0.309259 1.790980 
1.788775 0.121962 0.684290 
-0.767808 -0.480312 0.209453 
0.877243 0.065223 -1.661543 
0.261910 -0.862572 -1.198241 
1.328022 0.087624 -0.969892 
-0.802925 0.094415 1.725578 
1.027296 -0.114338 -1.204869 
-1.565749 -0.283095 0.323857 
1.250365 0.087394 0.780894 
1.747433 0.066531 0.686255 
1.121435 0.122724 0.383913 
1.278365 0.019230 -0.068410 
1.525293 0.071697 -0.399641 
1.798336 0.003983 1.262538 
0.106908 0.424176 -0.085791 
-0.104634 -0.868939 -0.579236 
-0.286667 -0.892339 1.149017 
0.311366 -0.902869 1.178522 
0.525946 -0.036211 1.563290 
0.174197 -0.874526 -0.641868 
1.578672 -0.029948 -1.417408 
1.376307 0.045146 0.965628 
0.696938 0.070696 1.458323 
1.264995 0.145799 0.078973 
1.014984 0.196739 -1.344769 
0.728069 0.100488 -1.383779 
1.261630 0.031343 -0.001882 
-1.717856 -0.314238 0.469484 
0.840836 0.044354 1.653972 
-1.002813 -0.001718 0.909720 
1.361263 0.016738 0.040088 
-3.005608 -1.067099 1.429534 
-0.390438 0.042472 1.559679 
-0.112322 0.380834 1.230521 
1.332385 0.421223 -1.008463 
-1.593802 0.318369 0.580315 
-0.843125 -0.880636 -1.153430 
0.484639 -0.086459 1.739173 
-0.450281 -0.089762 -1.633099 
-1.547948 -0.869955 -1.498386 
0.269541 0.074988 1.705436 
1.702234 -0.139991 0.358761 
-0.465044 0.382644 -1.441992 
1.694971 -0.019243 -0.521348 
1.580328 -0.120526 -0.229754 
-0.125108 -0.919426 0.644880 
-0.181470 0.107612 -1.702588 
-0.824778 -0.868268 1.103961 
-2.533365 -0.938042 1.071299 
1.265302 0.094732 0.786888 
1.731733 0.087861 0.774377 
-0.879532 -0.057824 -0.117331 
1.569493 0.096593 0.816760 
-0.785930 0.341019 1.740641 
-0.460774 0.143657 0.904094 
0.982235 0.082527 1.651019 
1.850599 -0.550159 0.872697 
-1.710636 -0.812264 -0.580325 
0.387776 0.031726 1.269095 
-0.604814 0.297071 1.704269 
-1.078908 0.033730 -0.448482 
1.568155 0.087135 0.495097 
0.270561 -0.881462 -0.141344 
1.717947 0.011455 0.811369 
0.396660 0.073499 0.543462 
1.774776 -0.033345 0.047037 
-0.338570 0.021466 1.567662 
-0.877325 -0.895375 -0.014097 
-0.701606 -0.404437 0.956018 
0.859235 -0.865712 -1.269451 
0.393059 0.037727 1.804657 
1.811181 -0.669095 -0.473755 
1.810464 0.001351 0.011451 
-0.382451 -0.349273 1.652503 
-0.739765 -0.528913 1.793236 
-0.112655 0.060318 1.845615 
-0.214807 0.064657 1.477678 
1.770262 -0.797933 1.255461 
0.167329 0.392480 0.164020 
-0.260657 0.048783 1.594895 
-1.452798 -0.889111 -0.116473 
-0.654444 0.238400 -1.591125 
1.337872 0.472839 -0.080888 
-0.858551 -0.365836 0.943407 
0.180935 -0.859391 -0.880024 
-0.574174 0.300893 -1.500334 
1.032024 -0.137889 1.712659 
-0.859711 -0.339171 0.988991 
-1.575005 -0.388878 0.221994 
1.384234 0.048374 -0.948412 
-2.275452 -0.917733 -1.758062 
-1.508564 -0.935044 -0.095406 
-0.309931 -0.880536 -0.129296 
-0.310531 -0.876159 -0.124752 
1.652325 -0.019612 0.918936 
-0.254320 0.049198 1.480290 
1.302146 -0.041257 1.385268 
-0.341688 0.037474 1.499400 
0.427042 0.362018 -0.752284 
-1.556399 -0.379161 -0.123322 
0.776790 0.259962 -1.476225 
0.540921 -0.086234 1.786784 
0.887067 -0.874820 -0.045853 
0.287612 0.035625 1.680366 
1.658350 -0.301246 -1.591744 
0.259649 -0.873692 -1.176168 
-0.174690 -0.814784 -0.853390 
-0.202833 0.060162 1.481985 
-0.244149 0.039334 1.555312 
1.863425 -0.552273 0.872883 
0.365729 0.072375 0.693893 
-1.415273 -0.913641 -1.182694 
-0.894927 -1.111335 -2.435163 
1.638290 -0.027883 0.910896 
-1.764388 -0.685735 1.288223 
-1.777194 -0.889895 -1.593792 
-0.241445 0.047073 1.570326 
-1.572235 -0.371098 0.272575 
1.114150 0.111795 0.390939 
0.286263 -0.870411 -0.026678 
-0.766860 -0.167021 0.904615 
-0.133406 0.068187 0.825370 
-0.731546 -0.381683 0.945924 
-0.887381 -0.887905 -1.246255 
0.402683 0.076163 0.544578 
-1.455218 -0.390161 0.196747 
-0.743927 0.316698 1.777189 
-0.718153 -0.363207 0.972352 
-0.701268 -0.199140 0.951342 
0.129072 -0.876996 0.863264 
-0.956819 -0.226512 0.704189 
-1.835405 -0.893205 -1.234544 
-1.360696 0.069030 0.511119 
1.234525 -0.024625 1.347086 
-1.729518 -0.453365 0.398561 
-0.786300 0.075964 1.700442 
1.265293 0.061378 0.021641 
-0.505929 0.114293 1.735111 
1.860090 -0.550945 0.873527 
0.184997 0.022561 1.267515 
0.370214 0.015871 1.262345 
1.444534 0.017334 -0.021919 
-0.952268 -0.219814 0.775857 
-0.926066 -0.365032 0.707222 
1.999395 -0.775280 1.075489 
-0.929532 0.291179 -0.484607 
1.770193 0.060346 0.248006 
0.616220 0.062968 0.940131 
1.597092 0.098678 0.478891 
1.885502 -0.096819 0.863370 
0.026733 0.069453 1.684621 
1.188829 0.175384 -1.425526 
0.882557 -0.835306 0.184252 
-0.265755 -0.047939 1.629825 
-0.368898 0.047181 0.066638 
-3.402879 -0.958427 1.132179 
-1.829350 -0.867685 1.311541 
-1.880402 -0.719705 -0.096153 
1.155647 0.041663 0.167350 
-0.675187 -0.287886 1.701878 
0.699934 0.064428 1.465568 
-0.855877 -0.367238 0.944266 
-1.068055 0.237154 -1.767031 
-0.306780 -0.875531 -0.020423 
1.090247 0.082908 1.690650 
-0.615144 -0.869858 -0.012840 
-0.894749 -0.893642 -0.128513 
-0.717881 -0.507258 1.576708 
1.443469 0.049009 -0.985518 
-0.678941 -0.288839 1.012400 
-0.975047 -0.107264 0.784625 
-0.323468 0.107898 -1.807282 
-0.094809 0.022373 1.421737 
-0.680867 -0.518498 1.715149 
0.090888 -0.865451 0.479788 
1.526601 0.022388 -1.714614 
0.795027 0.059512 1.600624 
1.170986 0.076254 0.949478 
0.595550 0.050127 0.908390 
1.452900 0.084201 0.026777 
0.227450 -0.869320 1.010720 
-1.651649 0.281546 0.941378 
-0.850255 -0.883824 1.145531 
1.657329 0.070886 -0.637968 
0.392714 0.035570 1.274573 
1.812913 -0.087389 0.440074 
1.726606 -0.106295 -0.179981 
-1.355346 -0.458260 0.663448 
-1.721925 -0.673655 -1.225312 
-0.884494 -0.893654 -0.126591 
0.275146 -0.867486 -0.120905 
-0.792408 0.169508 1.693088 
0.109685 0.062207 1.658399 
-0.943801 -0.157677 0.903647 
-0.149355 0.017518 -1.295415 
0.142678 -0.863281 0.698989 
-0.948105 -0.151931 0.906711 
-0.943890 -0.156215 0.905233 
-0.112950 0.390887 1.244247 
-1.582992 -0.424595 0.713817 
-0.948792 -0.287880 0.943893 
1.297065 -0.019365 1.351073 
1.411870 -0.857178 -0.069389 
1.687083 -0.313040 -1.682338 
-0.941424 -0.340195 0.825273 
-0.308471 -0.871313 -0.011176 
1.541771 0.082880 0.473533 
-1.759151 -0.677914 1.293972 
-1.760153 -0.665098 0.474989 
-1.769792 -0.866376 -0.024610 
-1.688670 0.356267 1.034832 
-0.197170 0.052022 1.468819 
-0.701056 -0.304085 0.664966 
1.168054 0.104384 0.421957 
-0.412541 0.415500 -1.836751 
-0.676959 -0.523302 1.019705 
0.874049 -0.842915 1.070866 
-0.389242 0.034626 1.537483 
-1.009472 -0.202421 -0.997140 
-0.656513 -0.143581 -1.471488 
0.453806 -0.028918 1.626408 
1.589558 -0.028796 -0.788939 
-0.640999 0.323425 -2.173328 
1.561640 0.016145 -1.655153 
-0.117247 -1.017696 0.882581 
1.889011 -0.834634 0.896999 
-0.577696 -0.921431 -0.132184 
-0.693850 0.071170 -1.684790 
0.094411 -0.906528 -0.967756 
-1.768381 -0.673026 0.006495 
0.176832 -0.860652 0.566465 
-1.317384 0.342253 1.238758 
0.184254 -0.828073 0.548536 
-0.275020 -0.887661 1.017132 
0.849012 0.106211 -1.972688 
-1.054560 -0.425785 1.807560 
1.855108 -0.830035 0.477449 
-0.679246 -0.519526 0.951500 
-1.384298 0.324405 0.873242 
0.103114 0.030016 1.427109 
1.302016 0.028388 0.932511 
-1.545412 -0.164066 0.053819 
0.269304 -0.860138 -0.045158 
0.166567 -0.851686 -0.627421 
-0.634546 -0.042785 1.070159 
-0.872583 -0.242435 0.924285 
-0.696718 -0.370389 0.938651 
-0.939093 -0.338497 0.905414 
0.628763 0.023438 0.798683 
-0.466289 0.032676 0.038546 
-0.538251 0.228081 1.448086 
0.182249 -0.867252 -0.687049 
-0.888505 -0.906764 -0.098672 
-0.679216 -0.277084 1.013392 
-0.876410 -0.896519 -0.032505 
-3.136441 -0.941266 1.034634 
-0.312028 0.003280 1.761497 
0.551867 -0.028684 1.577962 
-0.928187 -0.219449 0.904098 
-1.625680 0.261596 0.067110 
1.061389 0.160653 1.501592 
-1.763808 -0.353677 -0.810790 
-0.205310 0.088535 -1.342303 
0.266677 -0.878615 1.040482 
-1.484734 0.259112 0.018304 
-0.275870 -0.922904 1.090820 
1.850311 -0.740942 -0.828428 
-0.885337 -0.101365 0.933592 
-0.250685 0.051601 1.588637 
-0.963522 -0.914114 -1.265665 
-0.147642 0.055112 1.634739 
-0.567737 -0.900537 -0.045941 
1.502502 0.144806 -1.045093 
-0.378356 -0.499376 1.689281 
-0.627076 -0.264372 1.694186 
1.002588 0.398025 -1.314528 
0.657876 0.065101 1.336858 
1.241241 0.133537 0.014544 
0.413798 -0.014289 -1.621005 
1.182384 -0.096439 -1.742069 
1.851433 -0.789951 -0.594525 
-0.112373 -0.872690 0.477997 
0.064224 -0.806117 -0.568411 
1.695350 0.079973 0.172086 
-0.774539 0.320877 1.705841 
-1.846148 -0.698121 -1.394562 
-0.283286 -0.895880 1.134469 
-3.610975 -0.989965 -1.230164 
-0.209460 0.081333 1.526488 
-0.294916 -0.859697 1.017569 
-0.275462 -0.871730 1.089418 
0.635720 0.091994 0.797750 
-0.944423 -0.152873 0.904413 
-1.832626 -0.690916 1.335986 
-0.891702 -0.871821 -1.115524 
0.914926 -0.791885 0.228455 
-1.359022 -0.602941 1.670539 
1.072479 -0.000469 -1.286450 
1.541987 0.100231 0.857396 
0.715455 0.069400 1.399676 
-0.066631 0.093426 -1.851962 
-0.956336 -0.320767 0.830421 
-0.774783 0.141529 1.684768 
0.425352 -0.056793 1.476160 
1.584774 0.093905 0.482755 
1.394892 0.047182 0.967309 
-1.567794 0.323923 0.723073 
0.267601 -0.864833 -0.132968 
-0.505126 0.111596 1.729600 
-0.715949 -0.060573 0.637864 
0.252707 -0.867367 -1.174255 
1.839373 0.449735 0.542240 
-1.465492 -0.904746 -0.114384 
-1.613835 0.344647 0.612163 
-1.462361 -0.909858 1.164336 
-0.946955 0.061345 0.423997 
-2.298828 -0.934655 1.076841 
-0.107980 -0.889935 -0.136752 
1.706399 -0.016857 0.575535 
0.280639 -0.887453 -0.150817 
0.136085 -0.847461 0.695465 
-1.720419 0.320597 0.946787 
-1.748196 -0.874299 -1.169198 
1.746183 -0.579721 -0.582835 
-0.112265 -0.870656 -0.578465 
-2.137847 -0.886181 1.108524 
-0.557726 -0.057859 -1.747943 
0.105838 0.054200 1.653255 
-1.788608 -0.580046 -1.103683 
0.619241 0.064619 -1.556899 
0.443052 -0.067585 1.830529 
-0.685001 -0.521539 0.955887 
-0.197619 0.065963 1.449914 
-0.603348 0.266250 0.107399 
-0.290874 -0.860964 1.123010 
0.207831 0.023364 1.249257 
-0.702443 -0.406244 0.950742 
1.216637 0.143018 0.181367 
-1.612642 0.164545 0.395306 
1.599856 0.100500 0.481122 
-0.295369 -0.869228 1.030012 
1.521645 0.251891 1.235348 
-1.665008 -0.177527 0.242700 
0.385036 0.030478 1.265188 
0.308041 0.051921 1.524243 
-1.373592 -0.876013 1.020184 
-0.930163 -0.026145 0.896797 
0.724667 -0.000978 -1.276075 
-0.946188 -0.023779 0.834342 
-1.642958 -0.206187 0.489784 
-0.945476 -0.127926 0.872467 
1.301934 0.389786 0.878683 
0.355577 0.063123 1.822011 
-0.765473 -0.490925 0.380195 
0.805961 -0.852262 -0.157290 
-0.234804 0.058636 1.347028 
-0.115093 0.011290 1.758556 
1.220998 0.138035 -0.087024 
-0.487848 0.162530 1.264928 
0.277866 -0.873848 -0.051485 
-1.428719 -0.934239 1.183196 
-0.393773 0.362841 -1.386348 
-0.333839 0.325662 -1.262388 
1.563631 0.093807 -1.429827 
-2.122357 -0.865205 1.052587 
0.117430 0.062304 1.670443 
0.661864 0.045231 -1.582581 
-0.636891 -0.042235 1.077402 
0.450316 0.030294 1.489851 
1.148204 0.123121 0.052361 
-1.121415 -0.507364 0.413933 
-0.540775 0.262972 1.493780 
0.456722 -0.063543 1.841808 
-0.014714 0.401771 -0.216323 
1.043345 0.121342 0.062817 
-0.031763 0.061212 0.819075 
1.459702 0.086708 0.026264 
1.795128 -0.243873 -0.330365 
1.790410 -0.661195 -0.460367 
-0.880967 -0.904437 -0.084031 
-2.434239 -0.965394 1.176322 
1.268346 0.007900 -0.060235 
-0.724027 -0.475731 0.195465 
-0.790332 -0.210607 -0.601762 
-0.626168 -0.871600 -0.117903 
0.616244 0.017474 0.807278 
-1.758688 -0.710151 -1.166950 
0.227089 0.068876 1.749643 
-0.565042 -0.894817 -0.081920 
-0.403378 -0.498941 1.747412 
1.549666 0.087889 -1.401119 
-0.105760 0.038805 0.671892 
-0.902880 -0.902639 -1.230707 
1.221712 0.146826 -0.112493 
1.060712 0.070278 1.688322 
1.693712 0.067928 0.150181 
1.261147 0.093333 0.777079 
-0.701634 -0.402951 0.958135 
-0.935802 -0.057531 0.830016 
0.189248 0.405351 -1.414054 
-0.731627 0.299954 1.763379 
-1.733897 -0.077682 -1.238899 
1.253287 0.376740 -0.914384 
-1.583729 -0.264401 0.349377 
-1.709850 -0.835278 1.265567 
-0.195057 0.054612 1.473484 
1.244354 0.018533 -1.725339 
0.173375 -0.866229 -0.648954 
0.428169 0.052069 1.702522 
1.579555 0.090495 0.505398 
-0.833843 0.061898 0.375149 
0.833119 -0.802248 0.157591 
1.384142 -0.012472 1.764050 
-0.304648 0.000984 1.763502 
-0.802230 -0.024439 0.244079 
1.608663 0.052615 0.597654 
0.669259 0.070299 1.336222 
-0.947378 -0.285017 0.907407 
-0.637229 -0.508097 -1.209545 
-2.115375 -0.870105 0.473986 
1.090018 0.039511 0.349927 
0.365575 0.070863 0.633423 
-0.958737 -0.120177 0.383961 
1.098861 -0.077946 1.388233 
1.746141 0.025054 0.899609 
1.250027 0.147216 -0.101305 
-0.691864 -0.058282 1.648906 
0.739271 -0.031292 -1.264348 
-0.203014 0.358378 -1.416137 
0.143817 -0.862962 0.658301 
-1.754996 -0.496733 -1.022080 
1.660766 0.055165 0.771930 
1.290025 0.092653 -0.140886 
-0.939312 -0.283530 0.902841 
-0.709073 -0.053935 1.011660 
0.293910 0.030012 1.528575 
-1.702741 -0.300066 0.536694 
-0.252611 0.055122 1.488097 
-1.739086 -0.896081 -1.595282 
0.832443 -0.803083 0.176202 
1.681118 -0.130549 0.601003 
0.616565 0.220932 -1.466356 
-0.700830 -0.198489 0.951663 
1.008607 -0.070821 1.782325 
0.357220 0.068031 1.831571 
-1.796337 -0.263270 -0.824400 
0.058162 0.060148 1.691220 
0.082179 0.085097 1.731305 
0.999229 0.402881 -0.048957 
-1.613125 -0.220087 -0.125254 
-0.823460 -0.210948 -0.601140 
1.884690 -0.095401 1.185560 
-0.492449 0.087385 1.688472 
0.877504 -0.831499 0.193858 
-0.489298 0.051732 -0.003237 
-0.264697 0.043681 1.586297 
-1.332377 0.301440 1.223191 
1.824233 -0.827001 -0.482847 
-0.356809 0.118724 0.097612 
-0.015088 0.209558 -1.430082 
1.409865 0.073673 -1.329668 
1.156120 0.362104 1.429203 
0.798263 -0.830140 1.011288 
-0.945757 -0.124610 0.870554 
0.358839 0.042720 1.644856 
-0.914264 -0.232888 0.707772 
0.464095 0.170863 -1.431997 
-0.317288 -0.880748 -1.276568 
1.405584 -0.845082 -0.051533 
0.632238 0.040577 1.389259 
1.612916 0.096031 -0.627280 
-0.858413 -0.881066 -0.095442 
-0.398149 -1.016131 0.720051 
1.096290 0.041203 0.352276 
-0.241775 0.059285 1.591086 
-0.183829 -0.390951 -1.659738 
1.491883 0.087734 -0.909518 
1.019432 0.128289 0.056383 
-0.347872 0.046092 1.518635 
-0.254742 0.052148 1.572440 
-0.681523 -0.260564 1.016280 
0.459963 0.035301 1.499209 
1.539148 0.057664 1.752181 
-0.938313 0.039133 -0.483334 
-0.839966 -0.877060 1.026270 
-1.588391 -0.393936 0.052484 
1.429865 -0.001938 1.784245 
1.704728 0.081548 0.166678 
-0.176445 -0.882684 0.787478 
0.261611 -0.875608 1.032956 
1.142273 0.217766 -1.323304 
1.424892 -0.874006 1.100926 
-0.543489 0.237823 1.459938 
-0.794948 0.172004 1.717419 
-1.455930 -0.904458 -0.113720 
1.917575 -0.756594 1.051694 
1.332535 0.088184 0.745698 
-0.102811 -0.876083 0.481510 
-1.609837 -0.686553 -0.970566 
0.442540 -0.066249 1.826962 
1.710363 -0.131851 0.359368 
1.183555 0.380843 1.434970 
-0.391236 0.032512 1.538005 
1.720668 0.117062 -1.728351 
0.498464 -0.071123 1.723276 
0.569575 0.424684 -0.022252 
1.022356 0.159349 -1.370656 
-0.681501 -0.286089 1.014675 
0.317629 0.066690 1.726329 
-2.167739 -0.890752 0.442927 
-0.035862 0.075732 1.681017 
-1.906149 -0.856170 -0.786120 
-0.870940 0.227847 -1.809604 
-0.941005 -0.357207 0.832345 
-2.209195 -0.906227 -1.202587 
1.108304 0.041005 1.674198 
-2.213530 -0.902896 0.434591 
-2.762681 -0.897223 -0.880891 
1.836384 -0.226940 0.546342 
-0.174055 0.017664 -1.741314 
0.417499 -0.070096 1.766183 
-1.701620 -0.521382 -0.104033 
0.832256 -0.886986 -0.183849 
1.512419 0.038163 1.729830 
0.142343 -0.844324 0.481616 
0.752099 0.179384 0.845519 
-1.504514 -0.051942 0.261271 
1.636435 0.097851 -0.564238 
0.119214 0.049234 1.447239 
1.598394 0.395700 1.402439 
-0.214318 0.011135 1.720733 
0.448267 -0.015726 1.765432 
0.383267 0.030796 1.264382 
0.312370 0.057690 1.540964 
1.874000 -0.848558 -0.680518 
1.426910 -0.692556 -1.598860 
0.149036 0.044174 -1.557979 
0.259514 0.291282 -1.442488 
-0.574228 0.290005 -1.477239 
0.084952 0.395947 -1.365959 
0.959171 0.067035 1.770604 
1.412568 0.115308 -1.163794 
-0.394067 -0.576482 1.752705 
0.962604 0.391506 -1.278652 
-0.364780 -0.489488 1.564420 
0.172074 -0.873258 -0.873164 
-0.522421 0.133983 0.365719 
-1.431964 -0.950509 -1.234416 
0.446752 -0.026624 1.531402 
0.555063 -0.132155 -1.090428 
0.461077 -0.024980 1.635260 
1.698555 0.022347 0.555848 
1.692101 0.075133 0.167458 
0.431383 0.056363 -1.547925 
-1.616776 -0.752154 -0.276783 
-0.677693 -0.272307 1.006367 
-0.848117 -0.881469 1.147613 
1.037529 0.165237 -0.075522 
1.299140 0.042281 1.718353 
0.451380 -0.936055 0.063944 
0.145502 -0.866056 0.699977 
-1.778957 -0.867075 -0.033980 
1.805624 -0.744335 -1.304744 
-0.524822 0.369696 -1.608235 
0.666165 0.045011 1.482224 
1.831002 -0.661745 1.262403 
0.327583 -0.024052 -1.687254 
0.172353 -0.031997 -1.706473 
0.461191 -0.023774 1.633765 
-2.508848 -0.816702 -0.572709 
-0.956689 -0.261267 0.723152 
0.510327 -0.038594 0.832759 
0.306337 0.040024 1.544279 
0.615918 0.096488 0.909846 
1.200273 0.387724 1.435613 
1.066354 0.126037 1.077534 
-0.365892 -0.489487 1.565263 
1.391807 0.055656 0.858719 
1.378458 0.043715 0.965773 
0.070567 -0.837416 0.868469 
-0.841330 -0.383395 -0.837763 
1.447767 0.064056 -0.827688 
1.262351 0.088128 0.797424 
-1.078615 -0.402123 0.702991 
1.444895 0.419378 1.259467 
0.279958 -0.845989 1.130784 
1.381296 0.048045 0.955009 
-0.702162 -0.479314 0.226568 
1.301075 -0.020716 0.042914 
0.456185 -0.041687 1.557388 
0.552090 -0.034250 1.669146 
-0.667595 -0.523612 1.017597 
-1.435706 -0.895128 -0.144294 
0.283380 0.057959 1.670324 
1.254595 0.090728 0.771830 
-0.105990 0.031339 1.791250 
0.404773 0.024554 1.593833 
-0.947378 -0.317643 0.830295 
0.421230 0.141995 -1.298453 
-0.353344 0.173712 0.091372 
-0.629062 -0.884403 -0.040421 
0.536812 -0.037331 1.659275 
-0.369409 -0.357081 1.604323 
-1.369195 -0.876589 1.128645 
0.017960 0.057192 1.673005 
1.567359 0.258401 1.240320 
0.245937 -0.882221 -1.217396 
-0.928049 -0.222002 0.830804 
-0.857871 -0.199991 -0.661659 
-0.609895 -0.493654 -0.595394 
1.545012 0.005099 0.932257 
0.402777 -0.030021 1.706363 
0.444725 -0.029147 1.761747 
-1.025373 -0.035764 -0.621007 
0.413562 -0.072700 1.765818 
-2.744565 -0.962340 -1.212915 
-1.080074 0.035324 -0.461650 
0.310664 0.031951 1.770053 
0.179574 -0.860929 0.790890 
0.112202 -0.123897 1.657494 
0.424867 -0.067296 1.583273 
-0.159118 0.023576 1.593447 
-1.666090 -0.673052 -0.684281 
-0.952759 -0.317205 0.830660 
0.928066 0.062215 1.065016 
0.943666 0.069369 1.617120 
-1.565261 -0.682695 -0.905945 
0.426625 0.051234 1.704320 
1.710887 0.080980 0.703390 
1.012245 -0.136631 1.733045 
-0.099013 -0.887552 0.477635 
-0.879404 -0.365600 0.700304 
0.202971 0.078883 1.674573 
0.261870 0.070229 1.585794 
0.188720 -0.873419 0.555030 
-0.677130 -0.524322 1.019367 
0.447163 0.027693 1.491589 
0.369729 0.049536 1.649969 
0.510967 -0.013549 1.541984 
1.859101 -0.329928 0.874012 
-1.761685 -0.497479 -1.026708 
-0.264823 0.303310 -1.591890 
1.570183 0.243159 1.234423 
-0.199830 -0.521817 -1.585942 
1.498654 0.094327 -0.923630 
1.427705 0.011842 -0.011113 
-1.514130 -0.926437 1.115633 
0.404393 -0.089395 1.780938 
0.590788 0.007248 0.811246 
-1.047950 -0.416719 0.715181 
-0.947316 -0.259754 0.855300 
0.269513 0.044266 1.654635 
-0.115723 -0.878085 0.548926 
0.748891 0.047988 1.606582 
0.542143 0.004122 1.502192 
-0.460521 -0.406095 -1.623369 
0.263234 -0.000333 1.502935 
1.421447 0.071099 1.637407 
0.798460 -0.824709 1.130184 
2.081189 0.178343 0.519750 
1.540580 0.346101 -0.735605 
-0.409196 -0.565927 1.751138 
0.284833 0.038552 1.610429 
-0.976336 -0.873714 -0.083388 
1.703957 0.056588 0.305157 
-0.014963 0.393736 -0.205689 
0.232327 -0.838215 0.770180 
0.656533 0.038738 0.892849 
0.270389 -0.833552 1.022008 
1.724388 0.026367 0.531299 
1.652800 0.410396 1.467377 
0.529375 0.030221 1.392377 
0.867579 -0.854596 -0.107497 
0.613400 0.014236 0.840446 
-0.116205 0.006869 1.749525 
-0.396786 -0.582933 1.721822 
-0.699182 -0.486219 0.672546 
-1.548960 -0.455365 0.683275 
-0.340863 0.057041 1.472433 
-1.523881 -0.727882 -0.182489 
1.249613 0.143204 0.073919 
1.243466 0.095660 0.972951 
1.270549 0.007749 1.755900 
1.138538 0.211509 -1.001473 
-1.490709 -0.531563 0.656371 
0.265252 0.069975 1.642986 
0.479741 -0.031992 1.577637 
-0.482118 0.273866 -1.772260 
0.331551 0.036445 0.671267 
-1.437448 -0.882826 1.767869 
1.823574 -0.116214 -0.900625 
1.860572 -0.334396 -0.851251 
0.262460 0.044092 1.536820 
1.205243 0.072013 0.782642 
0.228282 0.027642 1.555256 
-0.851945 -0.252143 0.736102 
0.404983 0.024853 1.603081 
0.295336 0.013984 1.492795 
0.192847 0.029987 1.700256 
0.165907 -0.841491 0.799155 
-1.557709 -0.530373 0.651152 
0.600460 0.051687 0.941215 
1.796890 0.004114 1.265417 
-0.709999 -0.489247 0.669840 
-0.621721 -0.274743 1.015101 
0.355770 0.058667 0.905397 
2.027675 -0.785473 0.880759 
-0.819299 -0.863766 1.022374 
-0.884516 -0.286001 0.777617 
1.491914 0.058946 -0.035375 
1.398140 -0.638259 -1.563492 
1.406254 0.052582 0.967246 
1.261295 0.017593 -0.008419 
1.213937 0.432474 -0.037257 
1.661015 0.074216 0.959841 
-2.377960 -0.942675 -1.896530 
-1.000528 -0.229586 -0.890071 
1.493133 0.097396 -0.868975 
-0.300700 -0.878570 -0.036169 
-0.115668 -0.874172 -0.846169 
-0.672893 -0.517352 1.704543 
-0.409824 0.217708 0.157387 
1.080768 0.006384 1.660880 
-0.184628 0.043398 -1.562995 
0.265189 0.001343 1.503534 
-0.921901 -0.271094 0.770584 
-1.691355 -0.679865 -0.670143 
-1.650198 -0.883834 1.685998 
0.169426 0.037851 1.766958 
0.132473 0.010211 -1.564753 
1.015195 -0.133474 1.734929 
-0.849657 -0.387047 0.699124 
0.114314 -0.117458 1.667859 
-2.384422 -0.898422 -0.963694 
0.274477 -0.849306 1.052268 
0.447066 -0.032857 1.548548 
1.096466 0.122518 0.127230 
1.568268 0.092595 1.232986 
1.127885 0.119058 0.080818 
0.612433 -0.127088 -1.274380 
0.439180 0.036295 1.400924 
0.519281 -0.098324 1.759824 
-0.460033 -0.102899 -1.679553 
0.414153 0.036945 1.691777 
1.841925 0.142843 0.724627 
-0.940315 0.016285 0.812884 
0.524464 -0.059016 1.750487 
1.282046 0.089622 -0.137380 
1.270530 0.013648 -0.070367 
-0.465921 0.032671 0.037241 
-0.202911 -0.077566 -1.698207 
-0.185075 -0.910254 -0.832900 
0.306532 0.037418 0.549201 
-0.688246 -0.297431 1.004653 
0.404837 -0.027842 1.706259 
0.695952 0.054673 1.388916 
0.652057 0.037365 1.482022 
-0.125479 -0.867138 -0.796488 
-1.567100 -0.310962 0.581750 
-0.273173 0.273573 -1.565510 
1.215720 -0.082454 -1.210092 
0.522278 -0.054424 1.500227 
-1.092155 0.328884 1.780216 
0.534247 -0.048153 1.504621 
0.558636 0.000413 1.312391 
0.129569 -0.836295 0.679653 
0.773471 0.011695 -1.515926 
1.224468 0.078644 1.711308 
1.757860 -0.010999 -1.271903 
1.881247 -0.575084 -1.161665 
-0.296776 -0.887008 -1.210331 
1.158241 0.013234 1.734956 
-1.553351 -0.859579 1.646673 
1.246681 0.142952 0.068510 
1.074709 0.020133 1.656728 
0.504030 0.017311 0.864913 
-0.457940 0.295607 -1.745971 
0.560119 0.003080 1.311297 
-1.886956 -0.705628 -0.773868 
1.109173 0.111330 0.390248 
-0.480692 0.148630 -1.460825 
0.021220 0.253361 -1.403860 
-0.714087 -0.281259 1.724439 
-0.709876 -0.275533 1.720982 
-0.103695 -0.859194 0.506465 
-0.542171 0.197746 0.090483 
1.396855 0.010051 -0.077602 
0.245756 -0.879059 -1.273352 
0.821921 -0.790934 0.185885 
1.030019 0.048707 1.668297 
1.636766 0.082801 0.766310 
0.129665 -0.911121 -0.993891 
1.014820 0.041789 1.655293 
-1.756613 -0.881414 -1.156665 
-0.285225 -0.880663 -0.042962 
-0.770452 -0.477894 0.213321 
1.602968 0.064472 0.863262 
-1.044073 -0.092321 -0.625986 
1.381758 0.009515 1.714562 
1.817655 0.388126 1.254841 
1.099714 -0.115540 1.325112 
-0.876266 -0.241951 0.805817 
-1.201177 -0.738440 -0.657443 
-0.829304 0.221438 -0.248467 
1.364220 -0.860415 1.113469 
-2.281276 -0.907433 1.045439 
1.449948 0.422113 1.257478 
0.276920 -0.854204 1.045295 
0.135062 -0.842609 0.701222 
-1.762221 -0.404335 -1.030707 
0.993194 0.382002 -0.021003 
-0.389516 0.200232 -1.392998 
-1.168242 0.177216 -0.494919 
-1.559729 -0.908808 1.830216 
-0.623027 -0.883952 -0.037767 
0.967943 0.069004 1.770955 
-1.774082 -0.188053 -0.946102 
-0.132018 -0.064703 1.644622 
-1.739702 -0.665631 -1.214074 
0.676293 0.050415 1.450501 
-0.482071 0.057086 -0.004837 
-0.713031 -0.531472 1.775537 
-1.845807 -0.698035 -0.461448 
-1.776519 0.277123 -1.139941 
1.386261 0.093328 -1.488452 
1.764583 -0.491576 -1.673637 
1.858779 -0.329718 0.871311 
0.750902 0.057303 1.710479 
-0.856751 -0.283252 0.884197 
-1.479731 -0.667774 1.250856 
1.261332 0.014213 -1.313483 
-0.491638 0.319056 -1.454263 
-1.763334 -0.669097 -1.218486 
-0.120212 -0.129476 1.651393 
-0.161128 0.028647 1.600356 
-0.191981 -0.522083 -1.587063 
-0.716211 0.055864 0.803300 
0.413807 0.027443 1.390150 
1.560576 0.067567 -1.129059 
1.835737 -0.664546 1.259850 
1.844099 -0.118924 0.395463 
0.974123 0.013943 -1.739151 
-1.054964 0.036149 -0.414424 
0.933807 0.067332 1.603602 
-0.291520 -0.861768 1.019384 
-0.289034 -0.856528 1.020798 
-0.928213 -0.137228 0.801275 
-0.271057 -0.858112 1.098515 
-1.557434 -0.131663 0.224027 
0.824360 -0.840041 0.992261 
-0.123802 0.027273 0.520661 
0.254630 0.046349 0.574257 
0.385343 0.066786 0.548213 
1.076526 0.031222 0.364758 
-2.222260 -0.915673 -1.248541 
0.322188 0.064247 0.531828 
-0.109984 -0.870595 0.480540 
0.305489 0.151638 -1.403003 
-1.774259 -0.677880 0.003435 
-1.517914 -0.922212 1.009599 
1.171406 0.041281 0.165861 
-1.749344 -0.136141 -1.202339 
1.254416 0.085087 0.962635 
-1.723202 -0.994494 -1.591476 
-0.252078 0.184250 -1.427979 
1.053529 0.146656 0.143461 
-1.754391 -0.491982 -1.246325 
-0.269201 -0.459261 1.712276 
1.795332 -0.283672 1.402893 
-1.910823 -0.778041 -0.108188 
0.236948 0.379445 -1.399622 
-0.691454 -0.375724 0.691672 
-0.403773 -0.583841 1.788972 
1.702404 0.085443 0.256242 
-2.121826 -0.877464 1.051142 
0.356508 0.063434 0.641875 
1.265808 -0.126546 1.745904 
0.658773 0.020237 0.885020 
1.252019 0.024961 -1.182075 
1.598463 0.389905 1.402758 
-0.016905 0.402927 -0.062388 
1.608321 0.402475 1.400778 
-0.474952 -0.053088 0.695477 
1.287381 -0.827931 -1.024563 
-1.772912 -0.187534 -1.132532 
-0.720479 -0.280737 1.724888 
1.585591 0.091817 0.504264 
0.851846 -0.821375 0.225761 
-0.960766 -0.021428 0.831237 
1.550166 0.079250 0.517883 
1.652837 0.036775 0.927919 
1.675838 -0.715379 0.928030 
-0.843990 -0.367399 0.930543 
1.205453 0.136443 -0.088867 
-1.462194 -0.893137 -1.170103 
1.552565 0.071203 1.389109 
0.669844 0.048980 1.517879 
0.954441 0.370065 0.086337 
-0.951048 -0.913022 -1.286632 
1.525093 0.060459 1.459982 
-0.735371 -0.523279 1.742222 
-0.303635 -0.896913 -0.155618 
1.581777 0.097850 -1.434509 
-2.231186 -0.897811 0.415144 
1.405872 -0.620122 1.233522 
1.422246 0.064011 1.654092 
1.215544 0.144064 0.180608 
0.064994 0.357831 -1.425882 
-1.822185 -0.745699 -0.028952 
0.532426 -0.088982 1.777439 
-0.529626 0.409382 -1.606016 
-0.853423 -0.283514 0.884870 
-0.293471 -0.861938 -1.264257 
1.724925 0.025497 0.537748 
1.570455 0.076502 1.477369 
-1.773102 0.202430 -0.856426 
-1.765306 -0.099130 -0.853998 
1.308007 -0.042750 -1.501005 
-0.534098 0.384312 -1.478626 
-0.413382 -0.621481 1.737144 
1.796448 0.378577 0.945634 
-0.913673 0.077040 0.399828 
-0.768444 -0.236910 1.739878 
-0.986840 -0.491483 -0.102781 
-0.951142 -0.263478 0.703409 
1.123011 0.125654 0.368410 
-0.403781 -0.565830 1.789070 
1.847989 -0.728383 0.872231 
1.442659 0.017973 -0.020084 
-1.775306 0.079277 -0.916712 
-0.520815 0.003270 0.740581 
-0.965263 -0.294594 0.744623 
-0.547904 -0.872140 -0.045370 
1.453367 -0.869045 -0.146927 
1.030504 0.129733 -0.011779 
1.413126 -0.165366 -1.202887 
-1.671946 -0.816572 1.753017 
-0.263018 -0.892445 -1.193661 
-1.752208 -0.196167 -1.185267 
-0.793957 -0.492750 0.624859 
-0.594210 0.098256 0.079821 
-1.772044 -0.698008 0.490744 
-0.073417 -0.881656 -0.926329 
-0.362608 0.076824 0.063419 
-0.387483 0.141866 0.035233 
-0.635660 -0.089817 -1.472093 
0.871025 -0.840246 0.197866 
0.814176 -0.836096 1.130787 
1.363993 0.079634 0.802549 
1.071510 -0.103341 -1.146409 
1.165628 0.046191 0.984518 
1.761767 -0.256103 -0.241093 
1.531504 0.070414 -0.390441 
1.532212 0.082035 1.590355 
1.463073 0.053471 1.564402 
1.722751 -0.011362 0.340596 
