0.605274 0.415815 1.311458 0.000000 0.000000 0.000000
1.048513 0.611612 1.812378 0.000000 0.000000 0.000000
1.600952 0.414695 0.364104 0.000000 0.000000 0.000000
1.601647 -0.486124 0.306442 0.000000 0.000000 0.000000
-0.069719 -0.324650 -0.417264 0.000000 0.000000 0.000000
0.608233 0.539831 2.481788 0.000000 0.000000 0.000000
0.015592 -0.187210 2.436483 0.000000 0.000000 0.000000
0.876604 0.545044 2.585700 0.000000 0.000000 0.000000
0.058938 0.489867 2.402728 0.000000 0.000000 0.000000
-0.421779 0.310977 1.551252 0.000000 0.000000 0.000000
1.330809 0.522588 -0.367207 0.000000 0.000000 0.000000
0.641380 -0.497087 1.860495 0.000000 0.000000 0.000000
0.587471 0.529837 -0.191779 0.000000 0.000000 0.000000
0.092774 -0.002626 2.460436 0.000000 0.000000 0.000000
0.373214 -0.634601 0.657796 0.000000 0.000000 0.000000
1.593805 -0.593222 0.609192 0.000000 0.000000 0.000000
0.624636 0.175306 2.562157 0.000000 0.000000 0.000000
1.143643 -0.551371 1.921667 0.000000 0.000000 0.000000
0.248062 -0.145530 2.584894 0.000000 0.000000 0.000000
1.491464 0.205699 2.251064 0.000000 0.000000 0.000000
0.306159 -0.537227 -0.448152 0.000000 0.000000 0.000000
-0.244836 -0.157560 2.398189 0.000000 0.000000 0.000000
0.088674 0.423115 2.429293 0.000000 0.000000 0.000000
0.640171 0.467235 0.087688 0.000000 0.000000 0.000000
0.175296 -0.528803 2.551897 0.000000 0.000000 0.000000
1.167681 0.301491 2.593085 0.000000 0.000000 0.000000
-0.247855 -0.178413 -0.514522 0.000000 0.000000 0.000000
0.965533 0.584179 1.582098 0.000000 0.000000 0.000000
0.330995 0.241045 2.488557 0.000000 0.000000 0.000000
-0.323556 0.037617 -0.138704 0.000000 0.000000 0.000000
1.535407 -0.213402 1.601605 0.000000 0.000000 0.000000
1.516862 0.374583 -0.204443 0.000000 0.000000 0.000000
-0.376065 -0.294494 2.370971 0.000000 0.000000 0.000000
-0.283770 -0.383450 2.602326 0.000000 0.000000 0.000000
0.148582 -0.171083 2.553204 0.000000 0.000000 0.000000
-0.482643 0.150021 2.268497 0.000000 0.000000 0.000000
-0.020596 0.332801 2.544445 0.000000 0.000000 0.000000
0.964039 -0.415273 2.060482 0.000000 0.000000 0.000000
-0.014012 -0.503138 0.519540 0.000000 0.000000 0.000000
0.297435 0.563028 2.587645 0.000000 0.000000 0.000000
1.194489 0.485006 1.578051 0.000000 0.000000 0.000000
0.703734 -0.430098 1.792999 0.000000 0.000000 0.000000
0.600846 -0.503580 2.015690 0.000000 0.000000 0.000000
0.489197 0.526414 2.120975 0.000000 0.000000 0.000000
0.808362 0.447583 1.646905 0.000000 0.000000 0.000000
1.136834 -0.474972 2.383169 0.000000 0.000000 0.000000
0.392548 0.500888 2.444443 0.000000 0.000000 0.000000
-0.033092 0.050112 2.479055 0.000000 0.000000 0.000000
1.616067 -0.344795 1.604122 0.000000 0.000000 0.000000
1.434765 0.480993 1.688518 0.000000 0.000000 0.000000
1.563653 -0.567637 2.528737 0.000000 0.000000 0.000000
0.710151 0.588538 0.104521 0.000000 0.000000 0.000000
0.488465 0.078989 2.602919 0.000000 0.000000 0.000000
1.566118 -0.305542 0.442434 0.000000 0.000000 0.000000
0.322321 0.063594 2.471506 0.000000 0.000000 0.000000
1.038586 -0.529669 1.986407 0.000000 0.000000 0.000000
0.017805 0.050673 2.557776 0.000000 0.000000 0.000000
0.421213 0.473377 1.262722 0.000000 0.000000 0.000000
0.638434 -0.551947 1.581093 0.000000 0.000000 0.000000
0.446202 -0.132085 2.536068 0.000000 0.000000 0.000000
0.489419 0.372158 0.177913 0.000000 0.000000 0.000000
1.578038 -0.071824 1.356514 0.000000 0.000000 0.000000
-0.530741 -0.077500 1.539721 0.000000 0.000000 0.000000
1.630567 -0.014768 1.868720 0.000000 0.000000 0.000000
0.818844 -0.486602 0.201110 0.000000 0.000000 0.000000
0.462947 0.305372 2.516113 0.000000 0.000000 0.000000
1.536818 0.349361 1.085170 0.000000 0.000000 0.000000
-0.049354 0.079530 2.445918 0.000000 0.000000 0.000000
0.845581 0.456989 1.554933 0.000000 0.000000 0.000000
0.833287 -0.480235 0.121843 0.000000 0.000000 0.000000
0.286751 -0.330205 2.515910 0.000000 0.000000 0.000000
1.335789 -0.367620 0.478931 0.000000 0.000000 0.000000
0.856557 0.377189 2.127204 0.000000 0.000000 0.000000
0.464238 0.361081 2.294377 0.000000 0.000000 0.000000
2.494528 1.146290 2.346680 0.000000 0.000000 0.000000
0.517706 0.593797 1.239581 0.000000 0.000000 0.000000
0.795273 0.589753 1.325113 0.000000 0.000000 0.000000
-0.257199 0.437499 1.095684 0.000000 0.000000 0.000000
-0.085201 -0.427006 2.573853 0.000000 0.000000 0.000000
0.635139 -0.491286 2.237600 0.000000 0.000000 0.000000
1.409171 0.615847 1.705941 0.000000 0.000000 0.000000
0.031947 0.121437 2.399153 0.000000 0.000000 0.000000
0.382995 0.137834 2.588072 0.000000 0.000000 0.000000
1.507377 -0.243259 2.184847 0.000000 0.000000 0.000000
0.335630 0.485857 2.385287 0.000000 0.000000 0.000000
0.493440 0.438003 0.324741 0.000000 0.000000 0.000000
1.122469 -0.355308 2.023838 0.000000 0.000000 0.000000
1.585463 -0.410912 1.469174 0.000000 0.000000 0.000000
-0.261853 -0.449153 0.989797 0.000000 0.000000 0.000000
0.335193 0.176299 2.586652 0.000000 0.000000 0.000000
0.798947 -0.587553 1.578463 0.000000 0.000000 0.000000
-0.330872 0.214690 2.163733 0.000000 0.000000 0.000000
0.605403 0.481024 1.213280 0.000000 0.000000 0.000000
0.102676 0.574832 0.508491 0.000000 0.000000 0.000000
1.420192 -0.480875 2.535110 0.000000 0.000000 0.000000
0.692053 -0.404936 1.906441 0.000000 0.000000 0.000000
0.326004 -0.348957 2.546941 0.000000 0.000000 0.000000
1.138247 0.004621 2.583394 0.000000 0.000000 0.000000
-0.120426 -0.554520 1.079218 0.000000 0.000000 0.000000
0.213011 -0.172302 2.377318 0.000000 0.000000 0.000000
-0.039534 0.231051 2.611024 0.000000 0.000000 0.000000
-0.002787 -0.504944 0.541688 0.000000 0.000000 0.000000
1.298182 -0.595930 1.828072 0.000000 0.000000 0.000000
-0.267059 0.036270 -0.785840 0.000000 0.000000 0.000000
-0.217999 0.113416 2.604608 0.000000 0.000000 0.000000
-0.003747 0.204837 -0.172802 0.000000 0.000000 0.000000
-0.146620 -0.487577 -0.441469 0.000000 0.000000 0.000000
0.578699 0.404347 1.279434 0.000000 0.000000 0.000000
0.998558 0.548072 2.554526 0.000000 0.000000 0.000000
1.419505 -0.481910 -0.480659 0.000000 0.000000 0.000000
1.397433 -0.442883 1.847799 0.000000 0.000000 0.000000
0.800694 0.058008 2.385112 0.000000 0.000000 0.000000
1.057882 -0.261815 -0.353701 0.000000 0.000000 0.000000
-0.400448 0.240377 2.273941 0.000000 0.000000 0.000000
1.466562 0.210646 -0.451232 0.000000 0.000000 0.000000
0.552230 0.446101 2.075471 0.000000 0.000000 0.000000
0.990271 0.423289 2.427472 0.000000 0.000000 0.000000
-0.020560 -0.414753 1.583349 0.000000 0.000000 0.000000
0.053148 -0.547870 1.229263 0.000000 0.000000 0.000000
-0.437915 0.369324 0.252133 0.000000 0.000000 0.000000
-0.410952 -0.311998 2.038475 0.000000 0.000000 0.000000
1.037841 0.428583 2.182186 0.000000 0.000000 0.000000
0.814080 -0.271743 2.542225 0.000000 0.000000 0.000000
1.518051 -0.265160 2.221200 0.000000 0.000000 0.000000
-0.139761 -0.458570 1.037173 0.000000 0.000000 0.000000
1.422240 -0.410255 1.677167 0.000000 0.000000 0.000000
-0.318568 0.530565 0.809275 0.000000 0.000000 0.000000
-0.250348 0.603440 0.926687 0.000000 0.000000 0.000000
0.646037 0.578178 1.503917 0.000000 0.000000 0.000000
1.129883 0.575115 1.945104 0.000000 0.000000 0.000000
0.558091 -0.399238 2.286157 0.000000 0.000000 0.000000
-0.188267 -0.015268 2.493724 0.000000 0.000000 0.000000
-0.151879 -0.016620 2.505048 0.000000 0.000000 0.000000
0.103514 -0.180561 2.568092 0.000000 0.000000 0.000000
0.635945 -0.501030 0.243088 0.000000 0.000000 0.000000
-0.472809 -0.338988 2.576295 0.000000 0.000000 0.000000
-0.441852 0.131768 -0.057553 0.000000 0.000000 0.000000
1.615828 -0.246397 1.766015 0.000000 0.000000 0.000000
0.967557 -0.491426 1.474272 0.000000 0.000000 0.000000
0.891012 0.471602 1.575089 0.000000 0.000000 0.000000
0.245168 -0.161814 2.468174 0.000000 0.000000 0.000000
1.283618 -0.534269 2.592115 0.000000 0.000000 0.000000
1.444081 0.178328 2.417270 0.000000 0.000000 0.000000
1.621413 -0.510732 2.404891 0.000000 0.000000 0.000000
0.939484 -0.524605 2.482201 0.000000 0.000000 0.000000
0.587878 0.057176 2.546371 0.000000 0.000000 0.000000
1.469942 -0.064891 1.966266 0.000000 0.000000 0.000000
0.451707 0.413492 2.396170 0.000000 0.000000 0.000000
0.920685 -0.516268 2.057007 0.000000 0.000000 0.000000
1.133491 0.141854 2.629150 0.000000 0.000000 0.000000
0.964734 0.547092 1.565944 0.000000 0.000000 0.000000
0.644014 0.486275 1.610050 0.000000 0.000000 0.000000
1.448365 -0.464236 1.993067 0.000000 0.000000 0.000000
1.311562 -0.450662 2.427222 0.000000 0.000000 0.000000
1.238637 -0.023209 2.551062 0.000000 0.000000 0.000000
-0.532240 -0.503328 1.853993 0.000000 0.000000 0.000000
0.202418 -0.492076 1.435038 0.000000 0.000000 0.000000
-0.393822 -0.421165 0.419617 0.000000 0.000000 0.000000
-0.161689 0.362210 2.457405 0.000000 0.000000 0.000000
1.625226 0.134076 2.405006 0.000000 0.000000 0.000000
1.180203 -0.450620 2.256668 0.000000 0.000000 0.000000
-0.046362 0.123285 -0.479271 0.000000 0.000000 0.000000
0.452024 0.261482 2.608807 0.000000 0.000000 0.000000
1.361327 -0.542088 1.901912 0.000000 0.000000 0.000000
0.825491 -0.526518 2.181747 0.000000 0.000000 0.000000
1.552654 -0.039534 1.622057 0.000000 0.000000 0.000000
1.535095 0.417190 -0.197464 0.000000 0.000000 0.000000
-0.164996 0.457607 0.874903 0.000000 0.000000 0.000000
-0.311967 0.535425 1.237831 0.000000 0.000000 0.000000
-0.304161 -0.389718 1.815080 0.000000 0.000000 0.000000
0.491711 0.458713 1.288776 0.000000 0.000000 0.000000
-0.378333 -0.470330 2.063489 0.000000 0.000000 0.000000
0.171442 -0.499635 0.833522 0.000000 0.000000 0.000000
1.481812 0.394046 1.413967 0.000000 0.000000 0.000000
0.857073 0.555279 2.587304 0.000000 0.000000 0.000000
1.425742 -0.033327 0.782315 0.000000 0.000000 0.000000
0.570368 0.194257 2.514596 0.000000 0.000000 0.000000
-0.093782 -0.547121 1.050572 0.000000 0.000000 0.000000
-0.040400 -0.458327 1.575022 0.000000 0.000000 0.000000
0.155101 0.063418 -0.446949 0.000000 0.000000 0.000000
1.372725 0.423280 -0.522873 0.000000 0.000000 0.000000
1.588070 0.467871 2.120491 0.000000 0.000000 0.000000
-0.343427 0.061220 0.471791 0.000000 0.000000 0.000000
-0.236390 0.546691 2.402922 0.000000 0.000000 0.000000
1.192768 0.590789 1.826704 0.000000 0.000000 0.000000
1.169664 0.429853 -0.398104 0.000000 0.000000 0.000000
-0.374053 -0.481032 2.026446 0.000000 0.000000 0.000000
-0.143344 -0.321993 2.517839 0.000000 0.000000 0.000000
1.387712 -0.480732 1.917990 0.000000 0.000000 0.000000
1.353367 0.404210 1.597658 0.000000 0.000000 0.000000
0.441654 -0.279981 2.608229 0.000000 0.000000 0.000000
0.668724 0.496110 0.184373 0.000000 0.000000 0.000000
0.715036 0.311244 2.476059 0.000000 0.000000 0.000000
0.742766 -0.436875 0.137975 0.000000 0.000000 0.000000
-0.428453 0.553639 2.595200 0.000000 0.000000 0.000000
0.649804 0.376065 1.171370 0.000000 0.000000 0.000000
-7.063867 -0.919093 1.122824 0.000000 0.000000 0.000000
-0.338488 0.008786 2.241750 0.000000 0.000000 0.000000
0.018522 0.298446 2.436263 0.000000 0.000000 0.000000
0.353020 -0.092032 2.521706 0.000000 0.000000 0.000000
0.948527 0.557527 1.445999 0.000000 0.000000 0.000000
1.573731 0.152723 0.961848 0.000000 0.000000 0.000000
0.883420 0.506779 1.482126 0.000000 0.000000 0.000000
1.571540 0.005748 1.082338 0.000000 0.000000 0.000000
-0.385055 -0.401248 -0.153363 0.000000 0.000000 0.000000
0.836177 0.037214 -0.471874 0.000000 0.000000 0.000000
0.680602 -0.469750 2.297980 0.000000 0.000000 0.000000
1.537148 -0.212519 1.933270 0.000000 0.000000 0.000000
1.531136 0.310639 2.425936 0.000000 0.000000 0.000000
0.593717 0.471664 1.335687 0.000000 0.000000 0.000000
-0.149047 -0.548190 -0.489727 0.000000 0.000000 0.000000
0.536058 0.037401 2.538935 0.000000 0.000000 0.000000
0.846651 0.535590 1.929034 0.000000 0.000000 0.000000
1.607436 0.215907 1.957003 0.000000 0.000000 0.000000
-0.003951 0.348606 -0.551264 0.000000 0.000000 0.000000
1.159344 -0.078608 2.372358 0.000000 0.000000 0.000000
0.666720 0.134222 2.589983 0.000000 0.000000 0.000000
-0.361928 0.412632 1.426581 0.000000 0.000000 0.000000
-0.433244 -0.428741 1.958497 0.000000 0.000000 0.000000
1.236992 -0.585505 1.463990 0.000000 0.000000 0.000000
0.293415 -0.153493 2.519324 0.000000 0.000000 0.000000
0.229686 -0.209528 2.421759 0.000000 0.000000 0.000000
1.417013 0.457062 0.191549 0.000000 0.000000 0.000000
1.012859 -0.393592 1.782308 0.000000 0.000000 0.000000
0.439411 -0.173368 2.500021 0.000000 0.000000 0.000000
0.444429 0.027004 2.572891 0.000000 0.000000 0.000000
-0.465007 -0.103395 2.153840 0.000000 0.000000 0.000000
1.090861 -0.106120 2.424931 0.000000 0.000000 0.000000
0.411921 0.489558 -0.551251 0.000000 0.000000 0.000000
0.493084 0.171158 2.578452 0.000000 0.000000 0.000000
1.469907 -0.013761 -0.336330 0.000000 0.000000 0.000000
0.266925 -0.130454 2.605429 0.000000 0.000000 0.000000
0.114606 0.412425 0.948842 0.000000 0.000000 0.000000
1.412827 -0.003260 1.610844 0.000000 0.000000 0.000000
-0.109417 -0.105564 2.383528 0.000000 0.000000 0.000000
1.112385 -0.531631 0.482339 0.000000 0.000000 0.000000
0.189178 0.458529 0.962315 0.000000 0.000000 0.000000
1.347278 -0.257197 2.106738 0.000000 0.000000 0.000000
0.448932 -0.260039 2.389782 0.000000 0.000000 0.000000
-0.088594 0.374864 2.495350 0.000000 0.000000 0.000000
0.019600 -0.345224 -0.394564 0.000000 0.000000 0.000000
0.828458 -0.290543 2.530715 0.000000 0.000000 0.000000
1.462935 -0.550909 1.640512 0.000000 0.000000 0.000000
0.032615 -0.144762 2.533447 0.000000 0.000000 0.000000
1.153275 0.395445 2.387040 0.000000 0.000000 0.000000
0.789167 0.099202 2.413723 0.000000 0.000000 0.000000
1.479147 -0.406034 -0.407558 0.000000 0.000000 0.000000
0.938009 -0.301041 -0.363247 0.000000 0.000000 0.000000
0.761867 -0.504138 2.257680 0.000000 0.000000 0.000000
-0.470066 -0.468330 1.308263 0.000000 0.000000 0.000000
0.430461 -0.326206 2.538136 0.000000 0.000000 0.000000
-0.183570 0.412548 1.265520 0.000000 0.000000 0.000000
0.486130 0.550033 1.296093 0.000000 0.000000 0.000000
1.362798 -0.434336 1.394708 0.000000 0.000000 0.000000
0.270600 0.376949 2.543101 0.000000 0.000000 0.000000
1.216158 0.521627 1.856650 0.000000 0.000000 0.000000
1.563153 -0.474069 1.528601 0.000000 0.000000 0.000000
1.455296 -0.399032 1.759109 0.000000 0.000000 0.000000
1.136151 -0.590381 1.643352 0.000000 0.000000 0.000000
-0.037631 -0.552999 2.542491 0.000000 0.000000 0.000000
0.935513 0.412898 1.573901 0.000000 0.000000 0.000000
0.022112 -0.185296 2.527602 0.000000 0.000000 0.000000
-0.455635 -0.509450 2.091526 0.000000 0.000000 0.000000
0.603858 0.328478 2.492459 0.000000 0.000000 0.000000
0.400924 0.013293 -0.479587 0.000000 0.000000 0.000000
1.013050 -0.415956 0.559730 0.000000 0.000000 0.000000
1.386773 -0.419618 1.961725 0.000000 0.000000 0.000000
-0.440378 -0.088057 1.181440 0.000000 0.000000 0.000000
-0.357244 0.058645 1.078416 0.000000 0.000000 0.000000
-0.315184 -0.085090 1.168839 0.000000 0.000000 0.000000
-0.053361 -0.542720 -0.467088 0.000000 0.000000 0.000000
-0.480448 0.387083 0.419339 0.000000 0.000000 0.000000
0.281232 -0.416003 1.433935 0.000000 0.000000 0.000000
-0.534021 -0.396486 2.205005 0.000000 0.000000 0.000000
0.825571 0.380276 2.418455 0.000000 0.000000 0.000000
0.686677 0.403275 0.212955 0.000000 0.000000 0.000000
0.808137 0.456569 0.878018 0.000000 0.000000 0.000000
0.908205 0.166348 2.513702 0.000000 0.000000 0.000000
1.582287 0.327256 2.226458 0.000000 0.000000 0.000000
0.851315 -0.384441 1.605431 0.000000 0.000000 0.000000
0.705109 0.021006 2.383768 0.000000 0.000000 0.000000
0.761972 0.517853 1.586667 0.000000 0.000000 0.000000
0.343499 -0.159064 2.445188 0.000000 0.000000 0.000000
1.154565 -0.501788 1.697363 0.000000 0.000000 0.000000
-0.326897 0.190498 1.914502 0.000000 0.000000 0.000000
-0.417251 -0.119529 0.796499 0.000000 0.000000 0.000000
0.028602 0.507525 1.132017 0.000000 0.000000 0.000000
0.788345 0.416376 1.501857 0.000000 0.000000 0.000000
1.068377 0.403414 0.276472 0.000000 0.000000 0.000000
0.008856 0.551584 2.222133 0.000000 0.000000 0.000000
0.227706 0.505692 1.170612 0.000000 0.000000 0.000000
1.587440 -0.492761 1.253047 0.000000 0.000000 0.000000
1.108471 0.563591 2.441048 0.000000 0.000000 0.000000
0.573821 0.093719 2.539755 0.000000 0.000000 0.000000
1.540107 -0.138388 1.768364 0.000000 0.000000 0.000000
1.287215 0.280319 2.592201 0.000000 0.000000 0.000000
0.074690 -0.467741 -0.366300 0.000000 0.000000 0.000000
1.211825 0.517406 1.732672 0.000000 0.000000 0.000000
1.088518 -0.227316 2.460349 0.000000 0.000000 0.000000
1.068859 0.039802 -0.430738 0.000000 0.000000 0.000000
0.922553 0.125059 -0.526107 0.000000 0.000000 0.000000
0.681712 -0.313922 -0.551427 0.000000 0.000000 0.000000
1.501084 -0.441208 2.441559 0.000000 0.000000 0.000000
0.155715 0.293621 2.477184 0.000000 0.000000 0.000000
0.152801 -0.406554 2.566827 0.000000 0.000000 0.000000
1.475688 -0.249703 1.767952 0.000000 0.000000 0.000000
0.120757 -0.044146 -0.431379 0.000000 0.000000 0.000000
-0.183253 -0.596646 1.115276 0.000000 0.000000 0.000000
0.346302 -0.384749 2.599400 0.000000 0.000000 0.000000
1.101663 0.587199 1.460865 0.000000 0.000000 0.000000
1.614679 -0.150525 -0.543802 0.000000 0.000000 0.000000
-0.149581 0.034329 2.560175 0.000000 0.000000 0.000000
-0.216482 -0.416627 0.937778 0.000000 0.000000 0.000000
-0.203110 0.365787 -0.572933 0.000000 0.000000 0.000000
0.506788 0.146465 2.515009 0.000000 0.000000 0.000000
0.594144 -0.458829 1.758997 0.000000 0.000000 0.000000
0.635765 0.134630 -0.338853 0.000000 0.000000 0.000000
-0.548119 -0.324667 2.231665 0.000000 0.000000 0.000000
1.301185 0.050663 -0.489393 0.000000 0.000000 0.000000
1.069423 0.130243 -0.567730 0.000000 0.000000 0.000000
0.192510 -0.427345 -0.569964 0.000000 0.000000 0.000000
1.493073 0.441758 2.966279 0.000000 0.000000 0.000000
1.125842 0.435243 1.629112 0.000000 0.000000 0.000000
0.835419 0.517901 2.567503 0.000000 0.000000 0.000000
-0.095349 -0.549457 1.162738 0.000000 0.000000 0.000000
1.205664 -0.571582 1.961875 0.000000 0.000000 0.000000
0.499686 0.424907 1.303053 0.000000 0.000000 0.000000
-0.249070 0.534498 1.370434 0.000000 0.000000 0.000000
1.041189 0.295953 -0.349739 0.000000 0.000000 0.000000
0.792555 0.215581 2.538308 0.000000 0.000000 0.000000
0.244673 -0.395109 2.445535 0.000000 0.000000 0.000000
0.924527 0.520166 2.266715 0.000000 0.000000 0.000000
0.487107 0.396488 0.696318 0.000000 0.000000 0.000000
-0.520154 0.058173 2.399177 0.000000 0.000000 0.000000
0.446919 0.425836 0.850718 0.000000 0.000000 0.000000
0.482364 -0.374037 2.406222 0.000000 0.000000 0.000000
1.305793 0.205233 -0.445298 0.000000 0.000000 0.000000
0.906892 -0.434872 -0.495210 0.000000 0.000000 0.000000
0.569177 0.426930 1.692936 0.000000 0.000000 0.000000
1.147911 0.571480 -0.401415 0.000000 0.000000 0.000000
0.220539 -0.212512 2.420442 0.000000 0.000000 0.000000
1.231171 -0.446007 2.360276 0.000000 0.000000 0.000000
-0.394301 -0.130504 2.037789 0.000000 0.000000 0.000000
-0.353447 -0.149015 2.552435 0.000000 0.000000 0.000000
0.344949 -0.416284 2.608424 0.000000 0.000000 0.000000
0.373019 0.309565 2.493018 0.000000 0.000000 0.000000
0.059578 -0.182968 2.513210 0.000000 0.000000 0.000000
1.546789 0.245437 2.575785 0.000000 0.000000 0.000000
-0.326485 -0.293813 -0.339066 0.000000 0.000000 0.000000
1.636946 0.166197 1.773551 0.000000 0.000000 0.000000
-0.288909 -0.089421 -0.207953 0.000000 0.000000 0.000000
1.246998 0.511693 1.793144 0.000000 0.000000 0.000000
0.618252 0.356882 2.417022 0.000000 0.000000 0.000000
0.625573 0.258955 -0.469766 0.000000 0.000000 0.000000
0.267571 -0.432054 1.059977 0.000000 0.000000 0.000000
1.232387 0.358137 -0.534233 0.000000 0.000000 0.000000
1.192992 0.419888 0.237174 0.000000 0.000000 0.000000
1.183883 0.595553 1.546152 0.000000 0.000000 0.000000
1.535556 0.147440 2.276537 0.000000 0.000000 0.000000
0.701950 0.527134 2.397199 0.000000 0.000000 0.000000
1.428514 0.084683 2.283286 0.000000 0.000000 0.000000
-0.355336 -0.182845 -0.351175 0.000000 0.000000 0.000000
1.560166 0.421043 1.832196 0.000000 0.000000 0.000000
0.819266 0.418061 1.482962 0.000000 0.000000 0.000000
1.467028 0.375490 1.447415 0.000000 0.000000 0.000000
1.602227 0.206860 1.408347 0.000000 0.000000 0.000000
0.872202 0.490407 0.012103 0.000000 0.000000 0.000000
0.844584 -0.373478 2.439092 0.000000 0.000000 0.000000
0.559646 -0.406423 1.054730 0.000000 0.000000 0.000000
-0.111517 -0.449056 1.088453 0.000000 0.000000 0.000000
1.410004 0.371318 -0.502042 0.000000 0.000000 0.000000
1.236110 0.600906 1.945119 0.000000 0.000000 0.000000
0.238578 0.322583 -0.347996 0.000000 0.000000 0.000000
1.255042 0.536971 2.110548 0.000000 0.000000 0.000000
0.529087 0.340214 -0.356512 0.000000 0.000000 0.000000
1.371184 -0.232121 2.535501 0.000000 0.000000 0.000000
1.061413 -0.552102 0.470208 0.000000 0.000000 0.000000
0.536636 0.051818 -0.439158 0.000000 0.000000 0.000000
1.252338 0.359321 -0.515151 0.000000 0.000000 0.000000
1.435281 0.404986 2.166765 0.000000 0.000000 0.000000
0.868841 -0.306460 2.442256 0.000000 0.000000 0.000000
1.331218 0.294263 2.555580 0.000000 0.000000 0.000000
1.493146 -0.071801 1.261864 0.000000 0.000000 0.000000
-0.188815 0.253029 2.506287 0.000000 0.000000 0.000000
0.822504 -0.312863 2.603731 0.000000 0.000000 0.000000
0.857466 -0.590662 1.976814 0.000000 0.000000 0.000000
0.275503 -0.244952 2.546021 0.000000 0.000000 0.000000
1.009766 0.570174 1.610430 0.000000 0.000000 0.000000
-0.273294 -0.433756 0.518759 0.000000 0.000000 0.000000
1.553387 0.199889 -0.496850 0.000000 0.000000 0.000000
1.056049 -0.218058 -0.572659 0.000000 0.000000 0.000000
1.471956 0.028535 -0.182599 0.000000 0.000000 0.000000
0.949061 0.535339 -0.120929 0.000000 0.000000 0.000000
0.376260 0.154198 2.506095 0.000000 0.000000 0.000000
1.493881 0.566733 0.139207 0.000000 0.000000 0.000000
0.140660 0.153843 -0.513257 0.000000 0.000000 0.000000
0.669291 -0.484229 2.436174 0.000000 0.000000 0.000000
1.487404 -0.159287 1.306408 0.000000 0.000000 0.000000
1.123168 0.535046 2.241251 0.000000 0.000000 0.000000
0.656302 -0.564836 1.826219 0.000000 0.000000 0.000000
1.451560 -0.260814 1.978611 0.000000 0.000000 0.000000
1.478823 -0.499595 0.627555 0.000000 0.000000 0.000000
-0.414588 0.471804 2.365649 0.000000 0.000000 0.000000
1.070080 -0.539874 1.750688 0.000000 0.000000 0.000000
0.440394 0.484879 1.099894 0.000000 0.000000 0.000000
0.267388 -0.075006 -0.563230 0.000000 0.000000 0.000000
1.114215 0.436211 1.153012 0.000000 0.000000 0.000000
-0.164270 -0.566449 0.754684 0.000000 0.000000 0.000000
1.547620 -0.207690 2.119262 0.000000 0.000000 0.000000
-0.168920 0.250760 2.398644 0.000000 0.000000 0.000000
0.900533 0.230523 2.409038 0.000000 0.000000 0.000000
1.477257 -0.340315 1.054895 0.000000 0.000000 0.000000
-0.280456 0.577998 0.827647 0.000000 0.000000 0.000000
1.551671 -0.078822 1.296990 0.000000 0.000000 0.000000
1.028963 0.422011 -0.099720 0.000000 0.000000 0.000000
-0.443782 -0.253853 1.525820 0.000000 0.000000 0.000000
0.297623 0.524817 1.225259 0.000000 0.000000 0.000000
-0.538031 -0.571397 0.708622 0.000000 0.000000 0.000000
0.927867 -0.553844 2.284528 0.000000 0.000000 0.000000
1.054702 -0.116120 2.417974 0.000000 0.000000 0.000000
1.583393 -0.122305 1.191181 0.000000 0.000000 0.000000
-0.011807 -0.528371 1.481438 0.000000 0.000000 0.000000
1.049717 0.414495 2.077222 0.000000 0.000000 0.000000
-0.359038 -0.288769 0.411158 0.000000 0.000000 0.000000
0.415047 -0.480020 -0.482431 0.000000 0.000000 0.000000
-0.353099 -0.068184 0.902189 0.000000 0.000000 0.000000
1.509983 -0.455653 2.075997 0.000000 0.000000 0.000000
1.638645 -0.408482 0.872980 0.000000 0.000000 0.000000
-0.192553 0.083541 -0.417363 0.000000 0.000000 0.000000
0.152954 -0.248867 2.612231 0.000000 0.000000 0.000000
1.134357 -0.484331 2.276417 0.000000 0.000000 0.000000
1.499197 0.431049 1.177324 0.000000 0.000000 0.000000
0.089800 0.577782 1.473010 0.000000 0.000000 0.000000
-0.466529 0.152572 -0.532403 0.000000 0.000000 0.000000
1.215277 0.308522 2.398371 0.000000 0.000000 0.000000
1.497343 -0.027640 0.374508 0.000000 0.000000 0.000000
0.107573 0.013415 2.514000 0.000000 0.000000 0.000000
-0.362474 -0.188087 0.791586 0.000000 0.000000 0.000000
1.440862 0.047045 2.125083 0.000000 0.000000 0.000000
1.267079 0.578930 1.291066 0.000000 0.000000 0.000000
0.679966 0.445488 0.311756 0.000000 0.000000 0.000000
0.543915 -0.451802 0.294262 0.000000 0.000000 0.000000
0.277563 -0.386851 2.485891 0.000000 0.000000 0.000000
0.631744 -0.301863 2.532023 0.000000 0.000000 0.000000
0.813355 -0.492660 -0.077797 0.000000 0.000000 0.000000
0.291431 0.528697 0.909233 0.000000 0.000000 0.000000
0.926157 -0.391175 0.374716 0.000000 0.000000 0.000000
1.478789 0.026880 1.619749 0.000000 0.000000 0.000000
-0.052736 -0.356590 2.521777 0.000000 0.000000 0.000000
1.039472 -0.423052 2.530720 0.000000 0.000000 0.000000
-0.213152 -0.117624 2.506892 0.000000 0.000000 0.000000
1.141135 -0.001655 2.504168 0.000000 0.000000 0.000000
0.697770 -0.259792 2.513674 0.000000 0.000000 0.000000
0.606933 -0.442343 0.011464 0.000000 0.000000 0.000000
0.647741 -0.492892 2.331378 0.000000 0.000000 0.000000
0.671851 0.422449 2.484546 0.000000 0.000000 0.000000
0.688048 0.443532 1.544046 0.000000 0.000000 0.000000
0.877295 0.275519 2.536369 0.000000 0.000000 0.000000
1.438347 -0.257856 2.559402 0.000000 0.000000 0.000000
0.607486 -0.368721 2.375511 0.000000 0.000000 0.000000
0.687625 -0.459212 2.473826 0.000000 0.000000 0.000000
0.625239 0.500978 2.529319 0.000000 0.000000 0.000000
1.347681 -0.576133 1.628470 0.000000 0.000000 0.000000
1.569061 0.033581 0.548744 0.000000 0.000000 0.000000
-0.056398 0.590786 1.390434 0.000000 0.000000 0.000000
0.248722 0.454647 1.264637 0.000000 0.000000 0.000000
0.813240 0.567450 2.454104 0.000000 0.000000 0.000000
0.795034 -0.038642 2.481167 0.000000 0.000000 0.000000
0.296009 0.150445 2.465103 0.000000 0.000000 0.000000
0.179601 -0.141437 -0.422269 0.000000 0.000000 0.000000
0.026251 -0.152789 2.637406 0.000000 0.000000 0.000000
1.512615 -0.011351 -0.267832 0.000000 0.000000 0.000000
0.911359 0.558116 2.255025 0.000000 0.000000 0.000000
-0.464045 -0.379003 0.312303 0.000000 0.000000 0.000000
0.249163 0.374269 -0.496394 0.000000 0.000000 0.000000
0.800753 0.442537 1.658364 0.000000 0.000000 0.000000
1.323469 -0.575241 2.178424 0.000000 0.000000 0.000000
1.205557 -0.331351 -0.424427 0.000000 0.000000 0.000000
1.169352 0.521907 1.897266 0.000000 0.000000 0.000000
1.285132 0.446409 2.159211 0.000000 0.000000 0.000000
1.244311 -0.467313 1.944432 0.000000 0.000000 0.000000
1.028426 0.298012 2.436857 0.000000 0.000000 0.000000
-0.393401 -0.459618 1.033712 0.000000 0.000000 0.000000
0.564997 -0.468611 1.377800 0.000000 0.000000 0.000000
0.296588 -0.483253 0.700234 0.000000 0.000000 0.000000
-5.355380 0.404140 -2.139628 0.000000 0.000000 0.000000
1.571602 0.019564 2.064439 0.000000 0.000000 0.000000
1.297124 0.439893 2.482645 0.000000 0.000000 0.000000
0.092465 -0.165525 2.471646 0.000000 0.000000 0.000000
0.210369 -0.488416 0.811463 0.000000 0.000000 0.000000
1.044072 0.538735 1.809918 0.000000 0.000000 0.000000
0.461356 0.364525 -0.410418 0.000000 0.000000 0.000000
-0.100397 -0.024236 0.005329 0.000000 0.000000 0.000000
0.957633 0.483706 1.335041 0.000000 0.000000 0.000000
-0.491724 -0.401193 0.472745 0.000000 0.000000 0.000000
-0.189001 -0.471356 2.548066 0.000000 0.000000 0.000000
1.518130 -0.199170 0.285185 0.000000 0.000000 0.000000
0.615565 -0.150408 -0.544044 0.000000 0.000000 0.000000
1.185836 -0.388060 2.559888 0.000000 0.000000 0.000000
-0.439283 -0.382730 2.322917 0.000000 0.000000 0.000000
-0.398432 -0.479143 0.906548 0.000000 0.000000 0.000000
-0.370354 0.518185 1.315916 0.000000 0.000000 0.000000
-0.509581 0.167232 0.712904 0.000000 0.000000 0.000000
1.329439 0.151744 2.567675 0.000000 0.000000 0.000000
0.867214 -0.143267 2.423018 0.000000 0.000000 0.000000
1.217249 -0.268717 2.504497 0.000000 0.000000 0.000000
-0.500256 -0.515215 2.264694 0.000000 0.000000 0.000000
1.553950 0.007073 1.747691 0.000000 0.000000 0.000000
1.778856 0.047250 1.699007 0.000000 0.000000 0.000000
0.964319 0.516915 2.354330 0.000000 0.000000 0.000000
0.611759 -0.114120 -0.363829 0.000000 0.000000 0.000000
1.046361 0.096550 2.460022 0.000000 0.000000 0.000000
0.968845 -0.433171 2.219990 0.000000 0.000000 0.000000
0.969801 0.396874 1.616702 0.000000 0.000000 0.000000
0.417672 0.432738 -0.568236 0.000000 0.000000 0.000000
1.263993 -0.420390 2.273484 0.000000 0.000000 0.000000
1.495413 0.462553 0.290791 0.000000 0.000000 0.000000
0.635851 0.426115 0.253636 0.000000 0.000000 0.000000
1.404759 0.539387 2.467365 0.000000 0.000000 0.000000
-0.195212 0.440391 0.929416 0.000000 0.000000 0.000000
0.985861 0.552404 1.801976 0.000000 0.000000 0.000000
0.044568 -0.401212 -0.486488 0.000000 0.000000 0.000000
1.246290 -0.450216 2.596928 0.000000 0.000000 0.000000
1.050293 0.349222 2.415888 0.000000 0.000000 0.000000
1.594744 0.219711 2.402176 0.000000 0.000000 0.000000
1.503436 0.496890 -0.062150 0.000000 0.000000 0.000000
0.567071 0.030606 2.504945 0.000000 0.000000 0.000000
-0.326562 0.230212 2.479856 0.000000 0.000000 0.000000
-0.396701 0.294981 1.489038 0.000000 0.000000 0.000000
-0.411867 -0.264093 0.813547 0.000000 0.000000 0.000000
0.576417 -0.326387 2.606067 0.000000 0.000000 0.000000
1.464085 0.115922 1.540569 0.000000 0.000000 0.000000
-0.051036 0.414672 2.598887 0.000000 0.000000 0.000000
0.358345 0.011027 2.426786 0.000000 0.000000 0.000000
0.454352 0.260444 2.544818 0.000000 0.000000 0.000000
-0.205015 0.444541 2.396252 0.000000 0.000000 0.000000
1.007600 -0.378095 1.856979 0.000000 0.000000 0.000000
1.258309 -0.397040 1.639715 0.000000 0.000000 0.000000
-0.417375 -0.214573 -0.158664 0.000000 0.000000 0.000000
0.844304 -0.391766 0.064747 0.000000 0.000000 0.000000
1.006487 -0.537401 2.438571 0.000000 0.000000 0.000000
1.108078 0.364237 2.512747 0.000000 0.000000 0.000000
1.418446 -0.397162 1.434798 0.000000 0.000000 0.000000
-0.486786 -0.015240 1.030726 0.000000 0.000000 0.000000
1.243846 0.126031 -0.500671 0.000000 0.000000 0.000000
0.265277 -0.430601 1.077242 0.000000 0.000000 0.000000
1.420916 -0.528875 1.645311 0.000000 0.000000 0.000000
-0.239073 0.036536 2.517004 0.000000 0.000000 0.000000
1.589158 0.108154 1.926831 0.000000 0.000000 0.000000
-0.417029 0.438543 1.253384 0.000000 0.000000 0.000000
1.460283 -0.216336 1.204647 0.000000 0.000000 0.000000
1.566380 -0.261716 2.432670 0.000000 0.000000 0.000000
0.699639 0.268586 -0.411566 0.000000 0.000000 0.000000
0.442820 -0.254704 2.494311 0.000000 0.000000 0.000000
1.281371 -0.500178 0.505230 0.000000 0.000000 0.000000
0.170391 -0.106146 2.482961 0.000000 0.000000 0.000000
1.060224 -0.459586 2.527722 0.000000 0.000000 0.000000
1.003443 0.499425 2.268699 0.000000 0.000000 0.000000
1.122492 -0.444522 1.952883 0.000000 0.000000 0.000000
0.713796 -0.027991 2.471141 0.000000 0.000000 0.000000
-0.338234 0.431914 2.404565 0.000000 0.000000 0.000000
0.983645 0.548383 2.051020 0.000000 0.000000 0.000000
1.647658 0.218036 2.181463 0.000000 0.000000 0.000000
0.755478 0.391490 2.457589 0.000000 0.000000 0.000000
0.066739 -0.394528 1.178047 0.000000 0.000000 0.000000
1.446118 0.408315 2.520207 0.000000 0.000000 0.000000
1.149012 0.226883 2.387768 0.000000 0.000000 0.000000
0.357453 -0.141756 -0.326240 0.000000 0.000000 0.000000
0.782220 0.486907 2.397796 0.000000 0.000000 0.000000
1.059963 -0.371660 1.705848 0.000000 0.000000 0.000000
-0.138585 0.001148 2.573520 0.000000 0.000000 0.000000
1.651005 -0.558127 1.443223 0.000000 0.000000 0.000000
1.518543 -0.225015 1.683579 0.000000 0.000000 0.000000
0.769218 -0.433736 0.316833 0.000000 0.000000 0.000000
0.143707 -0.399420 -0.355950 0.000000 0.000000 0.000000
0.117671 0.507655 1.425098 0.000000 0.000000 0.000000
1.470103 0.268219 1.052162 0.000000 0.000000 0.000000
1.640767 0.064989 -0.314229 0.000000 0.000000 0.000000
0.388920 -0.158254 2.512844 0.000000 0.000000 0.000000
1.667972 0.214701 1.902689 0.000000 0.000000 0.000000
0.148127 -0.557854 1.229212 0.000000 0.000000 0.000000
0.738743 0.358221 -0.548052 0.000000 0.000000 0.000000
1.301271 -0.428328 2.458894 0.000000 0.000000 0.000000
-0.202747 0.080267 2.550724 0.000000 0.000000 0.000000
-0.077819 -0.342336 2.514831 0.000000 0.000000 0.000000
0.973785 0.381501 2.085696 0.000000 0.000000 0.000000
-0.033961 -0.295347 2.396170 0.000000 0.000000 0.000000
1.585868 0.440771 2.231885 0.000000 0.000000 0.000000
0.698872 0.050360 2.598668 0.000000 0.000000 0.000000
1.603024 -0.066412 2.001701 0.000000 0.000000 0.000000
1.551625 -0.272389 2.536779 0.000000 0.000000 0.000000
0.754848 0.608427 2.141944 0.000000 0.000000 0.000000
0.262813 -0.452971 0.757503 0.000000 0.000000 0.000000
0.151289 0.418605 0.978082 0.000000 0.000000 0.000000
0.459011 0.398389 0.946968 0.000000 0.000000 0.000000
1.109198 -0.453229 1.518496 0.000000 0.000000 0.000000
0.260376 -0.162202 2.472936 0.000000 0.000000 0.000000
1.297120 0.391093 2.564528 0.000000 0.000000 0.000000
1.024006 -0.361245 1.784336 0.000000 0.000000 0.000000
1.273961 -0.501789 2.508624 0.000000 0.000000 0.000000
0.980804 -0.553601 1.681257 0.000000 0.000000 0.000000
-0.561698 0.458167 0.053164 0.000000 0.000000 0.000000
1.527167 0.096826 2.135384 0.000000 0.000000 0.000000
1.193295 0.309826 2.461614 0.000000 0.000000 0.000000
-0.245809 0.507795 1.319002 0.000000 0.000000 0.000000
1.014010 0.393124 2.122425 0.000000 0.000000 0.000000
-0.532576 -0.086833 1.606843 0.000000 0.000000 0.000000
0.455263 -0.067199 2.484516 0.000000 0.000000 0.000000
0.998975 0.128776 0.023824 0.000000 0.000000 0.000000
-0.531819 -0.211617 2.151614 0.000000 0.000000 0.000000
1.571100 0.082212 1.988990 0.000000 0.000000 0.000000
1.400310 0.388801 2.264297 0.000000 0.000000 0.000000
0.206679 -0.397139 0.836657 0.000000 0.000000 0.000000
1.615271 0.080887 0.732553 0.000000 0.000000 0.000000
1.122397 -0.426597 2.238375 0.000000 0.000000 0.000000
0.028101 0.489960 -0.322659 0.000000 0.000000 0.000000
-0.148628 0.035122 2.650126 0.000000 0.000000 0.000000
0.924978 -0.493975 1.556000 0.000000 0.000000 0.000000
0.268539 0.187195 2.615793 0.000000 0.000000 0.000000
0.393897 -0.079731 2.512996 0.000000 0.000000 0.000000
-0.309410 -0.388761 0.846472 0.000000 0.000000 0.000000
1.498141 -0.408603 2.095352 0.000000 0.000000 0.000000
0.730921 -0.142475 2.395841 0.000000 0.000000 0.000000
0.745639 0.282275 2.435495 0.000000 0.000000 0.000000
1.121169 -0.510786 2.361643 0.000000 0.000000 0.000000
1.216465 -0.248681 2.444748 0.000000 0.000000 0.000000
0.694843 0.227124 2.385788 0.000000 0.000000 0.000000
-0.439689 -0.492090 1.090962 0.000000 0.000000 0.000000
0.044544 -0.048524 2.464262 0.000000 0.000000 0.000000
0.975698 -0.526766 2.551911 0.000000 0.000000 0.000000
1.484688 0.346308 2.434327 0.000000 0.000000 0.000000
1.371315 0.337046 0.590372 0.000000 0.000000 0.000000
0.538471 0.443059 2.533317 0.000000 0.000000 0.000000
1.409559 0.292349 2.554081 0.000000 0.000000 0.000000
0.116229 0.142462 2.534915 0.000000 0.000000 0.000000
-0.037777 0.453095 -0.515776 0.000000 0.000000 0.000000
0.157775 -0.612714 0.959927 0.000000 0.000000 0.000000
0.431341 -0.491623 1.381051 0.000000 0.000000 0.000000
-0.151079 0.565195 1.600369 0.000000 0.000000 0.000000
0.880127 0.344385 -0.515341 0.000000 0.000000 0.000000
0.787098 0.217151 2.416083 0.000000 0.000000 0.000000
0.178307 0.485393 1.129179 0.000000 0.000000 0.000000
1.571414 0.289423 2.166585 0.000000 0.000000 0.000000
0.627089 -0.385182 2.504314 0.000000 0.000000 0.000000
-0.295629 -0.325440 1.122770 0.000000 0.000000 0.000000
1.337188 0.535218 2.388919 0.000000 0.000000 0.000000
0.584911 -0.248535 2.448919 0.000000 0.000000 0.000000
1.317053 -0.490130 2.423529 0.000000 0.000000 0.000000
0.687818 0.550978 1.245425 0.000000 0.000000 0.000000
-0.071444 -0.434050 2.629858 0.000000 0.000000 0.000000
0.896735 -0.378323 2.497417 0.000000 0.000000 0.000000
0.277013 0.406160 0.796696 0.000000 0.000000 0.000000
1.000906 0.461776 2.519342 0.000000 0.000000 0.000000
1.469545 -0.342728 2.165194 0.000000 0.000000 0.000000
0.896219 0.114589 2.414469 0.000000 0.000000 0.000000
0.041433 0.429490 1.264007 0.000000 0.000000 0.000000
0.247194 0.123476 -0.395665 0.000000 0.000000 0.000000
-0.197784 0.018357 2.413179 0.000000 0.000000 0.000000
0.573421 -0.343661 2.527279 0.000000 0.000000 0.000000
0.693488 -0.344582 2.490113 0.000000 0.000000 0.000000
0.089427 0.434335 1.397135 0.000000 0.000000 0.000000
-0.429308 -0.003035 1.551315 0.000000 0.000000 0.000000
1.435780 0.420845 2.473352 0.000000 0.000000 0.000000
0.775874 -0.492939 0.464619 0.000000 0.000000 0.000000
1.584875 0.062204 0.777138 0.000000 0.000000 0.000000
0.385677 0.081921 2.491595 0.000000 0.000000 0.000000
1.305054 -0.487210 1.897740 0.000000 0.000000 0.000000
1.172150 0.636696 -0.083753 0.000000 0.000000 0.000000
1.486598 0.323086 2.160616 0.000000 0.000000 0.000000
0.154388 0.367339 -0.392507 0.000000 0.000000 0.000000
-0.060804 0.152317 2.594604 0.000000 0.000000 0.000000
1.549074 -0.505519 2.099962 0.000000 0.000000 0.000000
-0.550080 -0.056134 1.981895 0.000000 0.000000 0.000000
-0.413473 -0.027691 0.358912 0.000000 0.000000 0.000000
-0.469017 0.086523 1.930403 0.000000 0.000000 0.000000
1.066015 0.473678 1.755938 0.000000 0.000000 0.000000
0.452441 -0.408585 -0.451460 0.000000 0.000000 0.000000
0.389278 -0.227639 -0.474872 0.000000 0.000000 0.000000
0.330754 0.410274 0.061572 0.000000 0.000000 0.000000
1.587979 -0.050839 1.240873 0.000000 0.000000 0.000000
1.021881 -0.577280 0.270178 0.000000 0.000000 0.000000
1.716811 -0.492401 1.365213 0.000000 0.000000 0.000000
0.186684 -0.762117 -0.032462 0.000000 0.000000 0.000000
0.954248 0.521729 -0.549991 0.000000 0.000000 0.000000
0.834199 0.378572 2.545194 0.000000 0.000000 0.000000
0.841420 0.375699 2.428786 0.000000 0.000000 0.000000
1.564483 0.055201 0.534011 0.000000 0.000000 0.000000
0.565659 0.555980 1.203483 0.000000 0.000000 0.000000
1.749721 -0.390572 1.557058 0.000000 0.000000 0.000000
0.198502 -0.402328 1.148292 0.000000 0.000000 0.000000
0.842021 -0.066212 2.486804 0.000000 0.000000 0.000000
0.929933 0.423225 2.339904 0.000000 0.000000 0.000000
-0.269966 -0.554489 1.274762 0.000000 0.000000 0.000000
0.546757 -0.402743 1.326893 0.000000 0.000000 0.000000
0.063394 0.468342 0.596672 0.000000 0.000000 0.000000
-0.249829 -0.393440 1.177009 0.000000 0.000000 0.000000
0.083672 0.509723 2.369995 0.000000 0.000000 0.000000
1.586902 -0.387457 0.311682 0.000000 0.000000 0.000000
0.541599 0.589907 -0.553530 0.000000 0.000000 0.000000
1.433083 -0.522041 0.202907 0.000000 0.000000 0.000000
0.871907 0.466016 -0.418572 0.000000 0.000000 0.000000
-0.329158 0.505411 1.179014 0.000000 0.000000 0.000000
0.078639 -0.322893 -0.388122 0.000000 0.000000 0.000000
1.097375 -0.401191 2.578381 0.000000 0.000000 0.000000
0.770022 0.127186 2.424936 0.000000 0.000000 0.000000
1.322019 0.408100 2.438573 0.000000 0.000000 0.000000
1.409016 -0.053892 1.314076 0.000000 0.000000 0.000000
1.434557 -0.235199 1.640036 0.000000 0.000000 0.000000
-0.278200 -0.665093 0.400130 0.000000 0.000000 0.000000
-0.087442 -0.007323 -0.498797 0.000000 0.000000 0.000000
1.015716 0.470171 1.469113 0.000000 0.000000 0.000000
0.658128 0.564389 1.521299 0.000000 0.000000 0.000000
1.897307 0.514137 1.839430 0.000000 0.000000 0.000000
0.977413 -0.129859 -0.354765 0.000000 0.000000 0.000000
0.669805 0.073850 2.544867 0.000000 0.000000 0.000000
-0.358782 -0.331716 0.526766 0.000000 0.000000 0.000000
0.427134 0.313995 2.593214 0.000000 0.000000 0.000000
-0.403660 -0.283024 0.412453 0.000000 0.000000 0.000000
0.294207 -0.437255 1.271691 0.000000 0.000000 0.000000
1.563315 0.386091 1.278690 0.000000 0.000000 0.000000
0.545786 -0.413225 -0.346274 0.000000 0.000000 0.000000
-0.553242 -0.119768 0.180992 0.000000 0.000000 0.000000
1.098820 0.503769 2.430327 0.000000 0.000000 0.000000
1.471503 0.030255 1.298275 0.000000 0.000000 0.000000
0.828825 0.615096 0.199597 0.000000 0.000000 0.000000
0.643329 -0.126636 2.430331 0.000000 0.000000 0.000000
0.461407 -0.403641 1.262425 0.000000 0.000000 0.000000
1.540455 -0.248941 2.496171 0.000000 0.000000 0.000000
1.474264 -0.144773 2.059909 0.000000 0.000000 0.000000
1.249824 0.393721 0.181567 0.000000 0.000000 0.000000
1.510881 0.454337 2.402164 0.000000 0.000000 0.000000
1.423602 0.082857 2.397820 0.000000 0.000000 0.000000
1.157871 -0.530517 -0.439359 0.000000 0.000000 0.000000
1.451580 -0.046744 1.058173 0.000000 0.000000 0.000000
0.893460 0.521874 1.442201 0.000000 0.000000 0.000000
1.515806 0.302814 1.950038 0.000000 0.000000 0.000000
1.124105 -0.435076 2.219247 0.000000 0.000000 0.000000
0.458485 0.048404 2.521432 0.000000 0.000000 0.000000
0.503385 -0.402631 -0.204620 0.000000 0.000000 0.000000
0.833310 0.430746 0.792632 0.000000 0.000000 0.000000
0.900049 -0.422906 1.607583 0.000000 0.000000 0.000000
1.454678 -0.060130 1.515959 0.000000 0.000000 0.000000
1.525435 0.461799 1.829924 0.000000 0.000000 0.000000
1.404615 -0.071122 1.801390 0.000000 0.000000 0.000000
1.473573 -0.261624 1.907345 0.000000 0.000000 0.000000
0.701586 0.592913 0.586314 0.000000 0.000000 0.000000
-0.493330 -0.248560 -0.054264 0.000000 0.000000 0.000000
0.714859 -0.370953 -0.133860 0.000000 0.000000 0.000000
0.818180 0.489045 -0.406094 0.000000 0.000000 0.000000
1.345734 -0.014357 2.113022 0.000000 0.000000 0.000000
1.108749 -0.487514 1.671341 0.000000 0.000000 0.000000
-0.456238 -0.421336 1.490830 0.000000 0.000000 0.000000
1.476236 -0.247200 2.449160 0.000000 0.000000 0.000000
1.632569 -0.514013 0.399939 0.000000 0.000000 0.000000
0.908393 -0.450916 2.471641 0.000000 0.000000 0.000000
1.567540 -0.330892 2.567812 0.000000 0.000000 0.000000
-0.445935 0.029551 -0.184206 0.000000 0.000000 0.000000
0.746494 -0.061242 2.591021 0.000000 0.000000 0.000000
0.668254 -0.549020 0.469068 0.000000 0.000000 0.000000
1.019337 -0.253702 2.361794 0.000000 0.000000 0.000000
-0.402599 -0.144489 1.780847 0.000000 0.000000 0.000000
1.451402 -0.163671 1.067131 0.000000 0.000000 0.000000
0.546380 0.517442 1.004409 0.000000 0.000000 0.000000
1.223446 0.239224 2.442081 0.000000 0.000000 0.000000
0.857607 0.378770 1.302563 0.000000 0.000000 0.000000
1.569681 0.592755 2.175221 0.000000 0.000000 0.000000
1.325305 0.523183 2.512133 0.000000 0.000000 0.000000
-0.471998 -0.062283 1.229086 0.000000 0.000000 0.000000
0.141902 -0.229538 -0.413207 0.000000 0.000000 0.000000
0.334915 0.134008 2.553071 0.000000 0.000000 0.000000
1.481503 -0.121455 -0.494460 0.000000 0.000000 0.000000
1.597214 -0.057828 1.902880 0.000000 0.000000 0.000000
1.545524 -0.429790 -0.380824 0.000000 0.000000 0.000000
0.824898 0.305643 2.382104 0.000000 0.000000 0.000000
1.049499 0.049306 2.572255 0.000000 0.000000 0.000000
0.150141 0.459438 2.549104 0.000000 0.000000 0.000000
1.501697 0.102824 2.547538 0.000000 0.000000 0.000000
1.582141 0.508498 1.565847 0.000000 0.000000 0.000000
-0.326904 -0.089442 2.059847 0.000000 0.000000 0.000000
-0.094430 -0.080959 2.630731 0.000000 0.000000 0.000000
0.918815 0.451729 2.118855 0.000000 0.000000 0.000000
-0.449307 -0.571892 1.762381 0.000000 0.000000 0.000000
-0.291566 0.259137 2.573577 0.000000 0.000000 0.000000
0.518377 0.257523 1.626871 0.000000 0.000000 0.000000
0.796757 -0.043483 2.548191 0.000000 0.000000 0.000000
0.205913 -0.246769 2.540166 0.000000 0.000000 0.000000
1.429998 0.292998 2.587155 0.000000 0.000000 0.000000
1.406432 -0.089966 -0.153334 0.000000 0.000000 0.000000
0.460790 -0.506559 1.907672 0.000000 0.000000 0.000000
0.804162 -0.171170 2.588770 0.000000 0.000000 0.000000
0.297999 0.444658 1.020293 0.000000 0.000000 0.000000
1.094967 0.429367 2.606147 0.000000 0.000000 0.000000
1.152827 -0.591248 1.628118 0.000000 0.000000 0.000000
1.264636 0.435420 2.051196 0.000000 0.000000 0.000000
-0.148174 0.434399 1.462494 0.000000 0.000000 0.000000
0.405897 0.474506 1.471285 0.000000 0.000000 0.000000
1.270010 -0.380443 2.502013 0.000000 0.000000 0.000000
1.035811 0.338450 2.437364 0.000000 0.000000 0.000000
-0.448717 -0.460330 1.610625 0.000000 0.000000 0.000000
0.241045 0.002808 -0.406689 0.000000 0.000000 0.000000
0.280221 0.432328 1.150510 0.000000 0.000000 0.000000
1.422142 0.066649 2.278032 0.000000 0.000000 0.000000
0.913167 0.013879 2.502908 0.000000 0.000000 0.000000
-0.059257 -0.359664 2.443651 0.000000 0.000000 0.000000
1.418162 -0.303337 2.472563 0.000000 0.000000 0.000000
-0.367093 -0.045045 1.151091 0.000000 0.000000 0.000000
1.568407 -0.359446 1.889207 0.000000 0.000000 0.000000
1.575552 -0.247577 1.946178 0.000000 0.000000 0.000000
0.650358 -0.455233 1.948769 0.000000 0.000000 0.000000
0.958888 -0.068388 2.511451 0.000000 0.000000 0.000000
1.504149 0.477541 1.451190 0.000000 0.000000 0.000000
1.176906 -0.480929 2.260042 0.000000 0.000000 0.000000
0.568766 0.435536 0.148072 0.000000 0.000000 0.000000
1.091169 0.407931 1.643334 0.000000 0.000000 0.000000
1.467573 0.344625 2.606082 0.000000 0.000000 0.000000
0.210524 0.554307 1.411484 0.000000 0.000000 0.000000
1.343003 0.490076 2.043945 0.000000 0.000000 0.000000
1.487765 -0.323193 1.916108 0.000000 0.000000 0.000000
1.527552 -0.233240 0.450272 0.000000 0.000000 0.000000
0.588614 0.522697 -0.013524 0.000000 0.000000 0.000000
1.083936 0.445449 1.640372 0.000000 0.000000 0.000000
1.447451 -0.328341 2.012481 0.000000 0.000000 0.000000
0.794880 0.232320 2.459774 0.000000 0.000000 0.000000
0.451997 -0.066621 0.063920 0.000000 0.000000 0.000000
1.138335 0.148609 2.551442 0.000000 0.000000 0.000000
-0.501058 -0.328157 -0.386918 0.000000 0.000000 0.000000
1.633242 0.083296 2.203854 0.000000 0.000000 0.000000
1.566446 0.072665 2.002041 0.000000 0.000000 0.000000
1.535114 0.382167 1.741461 0.000000 0.000000 0.000000
1.537472 0.143929 1.864020 0.000000 0.000000 0.000000
0.613602 -0.418159 0.880390 0.000000 0.000000 0.000000
1.524745 0.442634 1.542498 0.000000 0.000000 0.000000
1.005181 0.392402 2.604236 0.000000 0.000000 0.000000
1.551787 -0.426649 0.615003 0.000000 0.000000 0.000000
1.631728 -0.171334 1.434042 0.000000 0.000000 0.000000
0.095304 -0.477333 1.476039 0.000000 0.000000 0.000000
1.083689 -0.566653 1.630121 0.000000 0.000000 0.000000
1.035230 0.169025 2.543490 0.000000 0.000000 0.000000
0.739789 0.175450 2.547802 0.000000 0.000000 0.000000
0.864951 0.437075 1.373101 0.000000 0.000000 0.000000
0.969459 -0.464021 0.081615 0.000000 0.000000 0.000000
-0.518570 -0.230550 2.624664 0.000000 0.000000 0.000000
-0.252380 -0.599220 1.094319 0.000000 0.000000 0.000000
0.304503 -0.520422 1.251848 0.000000 0.000000 0.000000
1.442029 -0.575643 2.026638 0.000000 0.000000 0.000000
1.548567 0.460318 1.998131 0.000000 0.000000 0.000000
0.035964 0.391680 2.566810 0.000000 0.000000 0.000000
1.367175 -0.487834 1.630482 0.000000 0.000000 0.000000
-0.086112 -0.043404 -0.530203 0.000000 0.000000 0.000000
0.288446 0.308028 -0.481905 0.000000 0.000000 0.000000
1.491203 -0.438705 2.618372 0.000000 0.000000 0.000000
1.619263 -0.114589 2.344933 0.000000 0.000000 0.000000
1.040791 -0.130099 2.498707 0.000000 0.000000 0.000000
0.844251 0.002301 2.518235 0.000000 0.000000 0.000000
0.646138 -0.583483 2.405400 0.000000 0.000000 0.000000
1.460766 0.249043 -0.359773 0.000000 0.000000 0.000000
-0.031215 0.380166 0.793840 0.000000 0.000000 0.000000
0.539348 -0.582574 1.535760 0.000000 0.000000 0.000000
1.259739 0.398114 2.426425 0.000000 0.000000 0.000000
0.649269 -0.007626 2.386842 0.000000 0.000000 0.000000
1.529998 -0.059579 2.308684 0.000000 0.000000 0.000000
1.516205 0.449966 2.112786 0.000000 0.000000 0.000000
0.681555 -0.533666 2.587474 0.000000 0.000000 0.000000
-0.125397 0.399639 -0.511070 0.000000 0.000000 0.000000
1.411905 -0.123512 1.404021 0.000000 0.000000 0.000000
1.552688 -0.095338 1.792758 0.000000 0.000000 0.000000
1.457375 0.372545 1.771114 0.000000 0.000000 0.000000
0.144182 -0.500839 -0.529689 0.000000 0.000000 0.000000
1.004141 0.480061 0.018646 0.000000 0.000000 0.000000
1.491984 -0.397027 0.528293 0.000000 0.000000 0.000000
1.396311 0.328690 -0.494652 0.000000 0.000000 0.000000
1.301658 -0.453428 1.793927 0.000000 0.000000 0.000000
1.659849 0.198422 0.958256 0.000000 0.000000 0.000000
1.150713 -0.208190 2.415706 0.000000 0.000000 0.000000
1.308712 0.205968 2.388786 0.000000 0.000000 0.000000
