1.419260 -0.082451 1.709254 255 255 255
-0.299057 0.376543 1.769161 255 255 255
1.394574 0.125439 2.390746 255 255 255
1.110684 0.113393 2.383235 255 255 255
-0.536065 -0.427678 -0.229843 255 255 255
0.164828 -0.203329 -0.554249 255 255 255
-0.387395 -0.612242 0.783020 255 255 255
1.014806 0.175792 -0.561126 255 255 255
-0.546562 -0.584813 -0.233828 255 255 255
1.085393 -0.599893 -0.408949 255 255 255
0.796752 0.405627 0.090417 255 255 255
1.449292 -0.280383 -0.059325 255 255 255
1.236428 -0.598599 0.271984 255 255 255
-0.550654 -0.420898 0.258982 255 255 255
0.796871 0.273070 2.330737 255 255 255
0.437517 0.379214 1.171065 255 255 255
-0.547913 -0.107388 -0.080821 255 255 255
-0.240105 -0.602193 1.063369 255 255 255
-0.542843 -0.041923 2.378644 255 255 255
1.411355 -0.252472 -0.250105 255 255 255
1.086049 -0.583204 1.740159 255 255 255
1.403410 0.010781 0.876380 255 255 255
0.933533 -0.308802 -0.561858 255 255 255
-0.557032 0.042085 1.372479 255 255 255
-0.224437 -0.605156 1.215383 255 255 255
-0.417839 -0.600233 1.026796 255 255 255
0.608884 -0.593864 -0.358549 255 255 255
0.245567 -0.047805 -0.539893 255 255 255
-0.518594 -0.231751 -0.220151 255 255 255
-0.543835 0.215348 -0.245341 255 255 255
-0.053328 -0.600404 1.052403 255 255 255
0.141005 0.375710 -0.568240 255 255 255
0.274264 -0.597031 1.393112 255 255 255
0.607349 -0.603813 1.882294 255 255 255
-0.159883 -0.175023 -0.571649 255 255 255
0.624131 0.146482 2.387123 255 255 255
-0.239828 -0.217538 -0.562221 255 255 255
1.406581 -0.401151 0.720083 255 255 255
0.047819 -0.354347 2.378815 255 255 255
0.149120 0.103453 -0.567078 255 255 255
1.410662 0.066155 2.380375 255 255 255
0.244639 0.378585 1.163048 255 255 255
1.413027 -0.425549 -0.235273 255 255 255
0.793726 0.378271 0.427532 255 255 255
-0.055047 -0.584203 -0.562938 255 255 255
-0.568611 0.228320 -0.246555 255 255 255
0.264095 0.374733 0.563653 255 255 255
1.048748 -0.556440 0.213577 255 255 255
1.410230 -0.416476 0.245413 255 255 255
0.246634 -0.150677 -0.566226 255 255 255
0.436249 0.379699 1.562775 255 255 255
0.550396 -0.548047 -0.586122 255 255 255
-0.553888 -0.097342 1.392135 255 255 255
-0.071583 -0.604194 0.573679 255 255 255
-0.540297 -0.447244 -0.191130 255 255 255
1.401702 -0.589017 1.408632 255 255 255
0.622250 -0.058823 -0.566933 255 255 255
0.344531 0.013300 -0.566024 255 255 255
0.237879 -0.056404 2.386875 255 255 255
1.410249 0.361552 0.083330 255 255 255
-0.055641 -0.594461 0.420997 255 255 255
0.096291 0.377257 0.728947 255 255 255
1.402475 0.255484 -0.565695 255 255 255
0.123311 -0.551634 2.383706 255 255 255
-0.555492 -0.278479 0.244306 255 255 255
0.091994 -0.596772 1.387158 255 255 255
-0.545922 0.142217 2.138906 255 255 255
0.418991 0.370432 0.908381 255 255 255
-0.048715 -0.591916 1.077274 255 255 255
0.441599 -0.477381 -0.566127 255 255 255
0.923581 -0.592210 0.087485 255 255 255
1.423831 -0.292256 0.277789 255 255 255
-0.552812 0.376311 1.395637 255 255 255
0.522847 0.012499 -0.566984 255 255 255
0.142209 -0.206626 -0.566483 255 255 255
0.324929 0.011571 -0.569815 255 255 255
0.263290 -0.593091 0.588380 255 255 255
1.410428 0.071605 0.404586 255 255 255
-0.537549 0.378019 0.571547 255 255 255
1.293851 -0.545433 2.383494 255 255 255
0.733051 -0.012731 -0.568787 255 255 255
-0.532850 0.212096 -0.389731 255 255 255
-0.549573 -0.158066 1.934670 255 255 255
0.101247 -0.608662 0.434806 255 255 255
-0.549077 -0.308037 1.541401 255 255 255
0.111413 -0.594689 0.919183 255 255 255
-0.459188 -0.545481 2.382385 255 255 255
1.107956 0.365789 1.448447 255 255 255
-0.366862 -0.374604 -0.586721 255 255 255
1.410462 -0.091429 -0.081158 255 255 255
-0.552180 -0.458171 0.879214 255 255 255
0.236225 -0.173282 -0.561101 255 255 255
-0.140617 0.278277 -0.555165 255 255 255
0.720961 -0.218757 -0.569232 255 255 255
0.584157 0.382192 0.413808 255 255 255
1.225732 0.160502 -0.572924 255 255 255
-0.252016 -0.222589 2.387701 255 255 255
1.413317 0.209116 0.271773 255 255 255
0.326881 -0.342237 2.388267 255 255 255
-0.332889 0.172009 -0.557671 255 255 255
0.535263 -0.009840 -0.569179 255 255 255
1.136395 0.377632 1.539995 255 255 255
1.399511 0.241213 1.835895 255 255 255
1.414875 0.237848 1.716566 255 255 255
0.103442 0.369249 1.038534 255 255 255
-0.360824 0.370912 0.911028 255 255 255
1.402802 -0.588743 1.402418 255 255 255
0.938991 0.379275 -0.231166 255 255 255
0.518007 -0.211302 2.359620 255 255 255
1.381929 0.321852 1.562084 255 255 255
0.094827 0.383941 0.607619 255 255 255
0.105907 -0.582289 1.091957 255 255 255
-0.399905 0.380470 0.736396 255 255 255
0.439808 0.384018 1.732338 255 255 255
0.523549 0.367678 -0.558805 255 255 255
-0.062571 -0.215639 -0.547994 255 255 255
0.440057 0.376660 -0.240479 255 255 255
-0.401453 -0.596997 0.426914 255 255 255
0.589897 0.359200 -0.061871 255 255 255
0.433444 0.377760 0.421413 255 255 255
1.114216 -0.596279 1.815102 255 255 255
0.598769 0.366649 1.958078 255 255 255
1.418976 0.046529 1.711966 255 255 255
0.428730 0.382454 0.596287 255 255 255
1.416780 -0.279961 0.266564 255 255 255
1.360128 -0.561337 2.367003 255 255 255
0.719618 -0.050006 -0.937078 255 255 255
0.114257 -0.592307 0.754333 255 255 255
-0.347692 0.509955 10.485056 255 255 255
0.230423 0.156405 -0.594176 255 255 255
1.405471 0.126841 -0.565234 255 255 255
1.366421 -0.569596 -0.551741 255 255 255
1.396670 0.373715 1.559790 255 255 255
0.108072 -0.610921 1.202724 255 255 255
1.422382 0.240273 -0.387328 255 255 255
-0.059120 0.383092 0.429371 255 255 255
0.873447 -0.503475 0.087006 255 255 255
0.683973 0.379295 1.175285 255 255 255
0.742033 0.131921 -0.573038 255 255 255
-0.557712 -0.272228 1.554502 255 255 255
-0.545920 -0.586456 -0.553988 255 255 255
0.249136 -0.593877 0.956535 255 255 255
0.722635 -0.574067 -0.210610 255 255 255
0.336260 0.339419 2.384988 255 255 255
0.129810 0.015451 -0.565409 255 255 255
1.008780 -0.486178 2.382910 255 255 255
0.100526 0.376609 0.418381 255 255 255
1.394918 -0.191598 2.381866 255 255 255
1.420520 -0.225583 0.952306 255 255 255
-0.551444 -0.425800 1.393963 255 255 255
0.095223 0.391145 0.950653 255 255 255
1.460121 0.042587 2.088941 255 255 255
1.022207 0.378161 1.144085 255 255 255
1.318511 -0.544131 -0.567951 255 255 255
0.445470 0.160312 -0.581133 255 255 255
-0.065169 -0.582474 2.378146 255 255 255
0.640704 -0.372973 2.418953 255 255 255
1.103761 0.368060 0.074214 255 255 255
0.439556 -0.596090 -0.407576 255 255 255
0.441610 0.376576 0.246662 255 255 255
0.249933 0.370454 0.780110 255 255 255
-0.056710 -0.606239 0.408068 255 255 255
-0.054511 0.376361 0.747942 255 255 255
-0.550852 -0.439861 0.748083 255 255 255
0.680397 0.378028 0.797664 255 255 255
1.418574 -0.600908 1.387874 255 255 255
-0.229409 0.375668 1.243094 255 255 255
1.410999 -0.111914 0.410922 255 255 255
0.749059 0.378593 0.267445 255 255 255
0.423346 -0.593544 0.576496 255 255 255
0.435494 -0.035836 -0.569714 255 255 255
0.336449 0.129051 -0.565789 255 255 255
-0.553916 -0.286138 0.756320 255 255 255
0.238851 0.157349 -0.567940 255 255 255
0.424740 -0.043615 2.377549 255 255 255
0.426474 0.378650 1.064378 255 255 255
0.258583 0.373001 0.752201 255 255 255
-0.170160 -0.154944 -0.575263 255 255 255
1.410276 0.215930 0.261447 255 255 255
0.765963 -0.595328 1.407931 255 255 255
1.309858 -0.434408 0.096969 255 255 255
-0.549013 0.366483 0.417799 255 255 255
-0.379102 -0.592561 0.583550 255 255 255
0.262104 -0.588799 0.714808 255 255 255
-0.553219 -0.114739 -0.398548 255 255 255
-0.065510 -0.573823 2.372500 255 255 255
0.261668 0.385531 0.801283 255 255 255
1.418724 0.241989 1.713754 255 255 255
0.277964 0.375907 0.430612 255 255 255
-0.236237 -0.602417 1.391497 255 255 255
-0.552324 -0.114441 0.407394 255 255 255
-0.588256 0.227051 1.309234 255 255 255
0.100475 0.374723 0.419594 255 255 255
1.419776 -0.312158 1.022853 255 255 255
1.409236 0.241456 1.866137 255 255 255
-0.054369 0.379580 0.431728 255 255 255
-0.061646 0.383610 0.575851 255 255 255
-0.230029 -0.596125 0.569995 255 255 255
1.412986 0.043498 0.109742 255 255 255
-0.419442 0.397708 1.104165 255 255 255
-0.436911 0.127172 -0.555034 255 255 255
-0.530659 -0.184102 -0.560782 255 255 255
-0.425791 0.042269 0.452268 255 255 255
-0.248816 -0.007218 -0.559429 255 255 255
-0.150256 0.152384 -0.562836 255 255 255
1.402638 -0.514674 0.830742 255 255 255
-0.055502 0.364273 0.549239 255 255 255
0.943404 0.437916 0.890136 255 255 255
-0.432656 -0.571392 -0.553256 255 255 255
-0.050366 -0.601470 0.602661 255 255 255
0.448703 0.370890 1.437302 255 255 255
1.530124 -0.092860 -0.096257 255 255 255
1.226574 -0.598067 1.574499 255 255 255
-0.155715 -0.035996 -0.562541 255 255 255
0.123776 -0.547080 2.385070 255 255 255
-0.166877 -0.478484 -0.567211 255 255 255
0.595145 0.385016 0.418521 255 255 255
0.440482 -0.619015 -0.170308 255 255 255
0.128276 0.422970 0.976892 255 255 255
1.421692 0.243097 0.954126 255 255 255
0.280535 0.395036 0.437870 255 255 255
1.377373 0.253317 1.615997 255 255 255
-0.188673 0.368611 1.736061 255 255 255
-0.562571 -0.132073 0.264571 255 255 255
1.030044 -0.034493 -0.565316 255 255 255
-0.342788 -0.386618 -0.569643 255 255 255
0.021985 -0.051105 2.386307 255 255 255
-0.555276 -0.595240 0.735441 255 255 255
0.025096 0.381144 2.065735 255 255 255
-0.236567 0.379498 0.895862 255 255 255
0.342965 -0.196708 -0.572273 255 255 255
1.411977 0.251996 1.673197 255 255 255
-0.557732 0.385895 0.582416 255 255 255
-0.547029 -0.422602 0.255563 255 255 255
1.403988 -0.257419 1.410934 255 255 255
0.751022 -0.595490 0.411529 255 255 255
0.435363 -0.593690 -0.233865 255 255 255
-0.232893 -0.597246 1.065804 255 255 255
-0.549336 0.054659 -0.080653 255 255 255
0.228365 -0.149108 -0.566761 255 255 255
0.422268 -0.592163 0.902583 255 255 255
1.420457 -0.095339 -0.396066 255 255 255
1.411760 0.124834 0.680697 255 255 255
1.409054 -0.523004 1.165224 255 255 255
1.102903 -0.594429 -0.383374 255 255 255
0.117668 0.389826 1.066935 255 255 255
0.270759 -0.595288 0.423219 255 255 255
1.127365 0.130850 -0.566638 255 255 255
1.405868 -0.157520 1.330185 255 255 255
0.734842 0.369119 1.734392 255 255 255
1.111256 0.377063 -0.202483 255 255 255
0.733736 -0.011584 -0.568926 255 255 255
0.590472 -0.592520 -0.242328 255 255 255
1.410782 0.369361 -0.395736 255 255 255
1.417015 -0.513047 0.850147 255 255 255
0.439422 0.384456 1.561265 255 255 255
-0.452926 0.120554 2.373043 255 255 255
1.256089 -0.591235 0.418410 255 255 255
0.264681 -0.594784 0.915224 255 255 255
0.344393 0.106495 -0.565407 255 255 255
0.631991 -0.174796 -0.561781 255 255 255
0.258953 -0.594812 0.924005 255 255 255
-0.446944 -0.578202 -0.568171 255 255 255
1.390865 0.369041 0.451504 255 255 255
2.222375 -0.037048 -1.899399 255 255 255
-0.333892 -0.472391 -0.538233 255 255 255
0.630372 -0.487474 -0.557065 255 255 255
0.424781 -0.056539 -0.567342 255 255 255
0.837779 -0.479942 -0.562687 255 255 255
-0.145932 -0.166195 -0.544784 255 255 255
-0.546265 0.067381 0.408208 255 255 255
-0.446132 -0.319004 -0.564430 255 255 255
1.386806 -0.591552 0.094092 255 255 255
1.330459 0.330382 -0.571624 255 255 255
1.409864 -0.257255 -0.240068 255 255 255
-0.052929 -0.588339 0.907966 255 255 255
-0.319714 0.126137 -0.593812 255 255 255
1.102697 0.375017 1.527520 255 255 255
-0.545992 -0.258060 -0.244387 255 255 255
1.049434 -0.504494 -0.564831 255 255 255
0.129702 -0.222577 -0.565344 255 255 255
0.258564 0.368199 1.068410 255 255 255
1.414282 -0.391479 1.090515 255 255 255
1.088725 -0.592510 1.407857 255 255 255
-0.534787 -0.352148 1.776791 255 255 255
-0.549663 -0.089280 0.237572 255 255 255
0.418194 -0.600895 0.762390 255 255 255
-0.204852 -0.519815 0.759204 255 255 255
-0.550310 0.051418 0.731897 255 255 255
1.396859 -0.580762 0.889172 255 255 255
1.407708 0.323537 0.844529 255 255 255
0.573033 0.372465 1.735412 255 255 255
0.423925 0.176884 -0.567494 255 255 255
1.027579 -0.177669 -0.565277 255 255 255
0.925241 -0.593021 0.410787 255 255 255
1.095670 -0.588758 -0.218586 255 255 255
0.320763 0.002242 2.363072 255 255 255
-0.547012 -0.417896 0.078056 255 255 255
0.110329 -0.589927 0.580547 255 255 255
0.828326 -0.176780 -0.563986 255 255 255
-0.557701 0.232746 -0.409204 255 255 255
0.605396 -0.281588 -0.462046 255 255 255
1.214667 -0.485760 -0.558003 255 255 255
0.648308 0.403620 0.090728 255 255 255
1.207938 0.277468 2.380064 255 255 255
0.435248 -0.614623 1.112560 255 255 255
-0.256271 -0.201225 -0.569703 255 255 255
-0.428081 -0.375992 2.555170 255 255 255
-0.551130 0.231914 0.745034 255 255 255
1.385794 0.343026 0.702138 255 255 255
-0.546431 -0.370411 2.377786 255 255 255
0.628790 -0.035055 -0.568252 255 255 255
0.589114 0.379209 0.096096 255 255 255
0.939784 0.379298 1.547912 255 255 255
-0.400956 -0.597939 1.228961 255 255 255
0.566789 0.201109 -0.743508 255 255 255
0.450930 0.389038 0.400702 255 255 255
0.628131 -0.495029 2.388834 255 255 255
0.239072 -0.167086 2.367636 255 255 255
-0.226056 -0.534984 -0.538880 255 255 255
0.269073 -0.595942 0.421504 255 255 255
-0.052275 -0.585492 -0.561834 255 255 255
0.131776 -0.326047 2.331377 255 255 255
0.261072 0.375972 0.421132 255 255 255
0.248919 -0.598892 1.245251 255 255 255
0.132962 -0.317529 -0.573278 255 255 255
-0.581799 -0.608059 -0.122106 255 255 255
1.093098 0.377918 0.079397 255 255 255
0.757942 0.105955 -0.390559 255 255 255
1.411448 -0.501912 1.313663 255 255 255
-0.549578 -0.261065 1.075199 255 255 255
-0.365279 0.374677 1.123893 255 255 255
0.044194 0.173517 2.374759 255 255 255
-0.309695 0.357316 0.565447 255 255 255
1.088289 -0.583662 0.240795 255 255 255
1.059197 0.356339 -0.212288 255 255 255
-0.550711 -0.269331 -0.087185 255 255 255
0.138881 -0.008012 -0.566255 255 255 255
-0.248074 -0.582251 -0.560828 255 255 255
2.110218 0.667777 1.611602 255 255 255
0.755064 0.380710 1.732381 255 255 255
-0.370653 -0.591466 1.080277 255 255 255
-0.552776 -0.278427 0.751014 255 255 255
-0.548779 -0.418119 0.753338 255 255 255
0.250259 -0.389231 -0.559051 255 255 255
-0.447253 -0.582165 -0.564808 255 255 255
-0.054575 -0.591345 0.745056 255 255 255
0.442763 0.380331 -0.369016 255 255 255
0.831440 -0.050786 -0.562122 255 255 255
-0.442691 -0.015085 -0.557446 255 255 255
1.407272 0.258070 0.933029 255 255 255
-0.056515 -0.314676 -0.553943 255 255 255
-0.548139 -0.423387 0.257636 255 255 255
-0.153675 -0.033904 -0.563495 255 255 255
-0.555348 0.057529 0.260706 255 255 255
-0.220699 0.368542 0.703378 255 255 255
-0.166716 -0.157847 2.373551 255 255 255
-0.558275 -0.278973 1.222061 255 255 255
0.927707 -0.214107 2.401042 255 255 255
1.298588 -0.319464 2.370486 255 255 255
0.948860 0.363686 1.765041 255 255 255
1.125181 -0.198688 -0.564573 255 255 255
-0.555411 -0.111262 0.095200 255 255 255
-0.524760 -0.551624 -0.097762 255 255 255
0.715622 -0.743788 -0.513575 255 255 255
0.106472 -0.601823 1.239234 255 255 255
-0.146372 -0.056218 -0.565200 255 255 255
-0.556389 -0.280777 0.254199 255 255 255
1.023845 -0.483386 -0.539458 255 255 255
0.641262 -0.057855 -0.565603 255 255 255
-0.197562 -0.598945 0.938877 255 255 255
1.412109 -0.263960 -0.070900 255 255 255
-0.550660 -0.444851 0.406247 255 255 255
-0.375783 -0.491053 -0.578814 255 255 255
-0.424182 0.380052 0.884167 255 255 255
0.438301 -0.475516 2.387421 255 255 255
-0.548719 -0.582928 0.096642 255 255 255
0.129508 -0.314425 -0.565571 255 255 255
0.532612 -0.314474 2.383528 255 255 255
-0.548658 0.054047 -0.244982 255 255 255
0.062523 0.376882 0.166816 255 255 255
-0.448354 0.333237 -0.567469 255 255 255
-0.367586 -0.034452 -0.592378 255 255 255
-0.482394 -0.238418 0.357607 255 255 255
0.722080 0.363350 2.380000 255 255 255
0.440365 0.359399 0.958594 255 255 255
-0.547671 0.381533 0.571832 255 255 255
-0.537610 0.375730 0.750918 255 255 255
-0.242767 -0.220515 -0.576419 255 255 255
-0.543960 -0.582517 0.742285 255 255 255
0.819526 -0.060369 2.438302 255 255 255
-0.557653 -0.285373 -0.229863 255 255 255
-0.540962 0.054314 -0.079696 255 255 255
0.780837 -0.616420 1.474939 255 255 255
-0.539778 -0.414495 -0.244838 255 255 255
-0.066939 -0.589833 2.383321 255 255 255
-0.357217 -0.344476 2.372405 255 255 255
-0.552050 -0.261938 0.255458 255 255 255
0.730611 -0.577097 1.876743 255 255 255
0.737485 0.105391 -0.565216 255 255 255
-0.535093 0.377737 0.753186 255 255 255
0.927639 -0.600023 0.051846 255 255 255
-0.557512 -0.093298 -0.232728 255 255 255
0.237477 -0.478614 2.386470 255 255 255
1.188256 -0.636666 0.213130 255 255 255
-0.552166 -0.115638 0.263707 255 255 255
-0.349830 -0.034769 -0.564322 255 255 255
0.105446 -0.614031 0.865773 255 255 255
1.118111 0.331175 2.370672 255 255 255
-0.344422 -0.172478 -0.556762 255 255 255
-0.552798 0.049417 0.091596 255 255 255
-0.056750 0.385555 0.577468 255 255 255
-0.388259 -0.618607 1.146341 255 255 255
0.636170 -0.483730 2.390368 255 255 255
0.431481 0.376194 1.889395 255 255 255
1.368764 -0.171983 2.273988 255 255 255
-0.383480 0.387809 1.147680 255 255 255
-0.550035 0.067614 0.582753 255 255 255
-0.429248 0.385477 0.898378 255 255 255
0.258618 0.378928 0.884828 255 255 255
-0.547129 -0.252557 0.584543 255 255 255
0.440201 -0.586822 2.117016 255 255 255
0.097339 0.371205 0.421440 255 255 255
1.126225 -0.606398 1.569266 255 255 255
-0.540339 -0.018626 -0.569403 255 255 255
-0.059035 -0.594200 1.394794 255 255 255
1.321147 -0.009808 -0.562948 255 255 255
0.096116 0.380239 1.391820 255 255 255
-0.377508 0.379238 0.428638 255 255 255
-0.311374 0.375558 1.879135 255 255 255
0.130957 -0.333783 2.386007 255 255 255
0.937536 -0.600451 -0.064836 255 255 255
-0.062558 -0.539230 2.346712 255 255 255
0.793350 0.377430 0.781077 255 255 255
-0.047227 0.105979 -0.564355 255 255 255
0.919705 0.316293 -0.566186 255 255 255
0.660556 0.373564 0.887251 255 255 255
1.410011 -0.374529 1.078024 255 255 255
1.409572 0.367571 1.108861 255 255 255
0.496686 -0.318220 -0.520190 255 255 255
0.632836 0.179026 2.377389 255 255 255
-0.430834 0.129701 -0.551705 255 255 255
1.336193 -0.297025 1.040640 255 255 255
1.384571 -0.052796 0.711920 255 255 255
1.127638 0.386879 -0.059554 255 255 255
0.706264 0.307569 -0.549092 255 255 255
1.097493 -0.194876 -0.700543 255 255 255
0.921013 0.373635 -0.565756 255 255 255
0.924183 -0.587585 -0.232553 255 255 255
0.932148 -0.595499 0.265599 255 255 255
1.419428 -0.115338 -0.225162 255 255 255
1.412705 0.069142 0.247763 255 255 255
0.718564 0.106390 -0.562292 255 255 255
0.519726 -0.559179 -0.570249 255 255 255
0.928612 -0.012808 -0.566739 255 255 255
1.095768 -0.590346 1.830837 255 255 255
0.437496 -0.601497 1.889507 255 255 255
1.246727 -0.045681 0.641615 255 255 255
-0.545858 0.158686 2.384740 255 255 255
-0.398662 0.372221 1.366703 255 255 255
0.515715 -0.688606 -0.631450 255 255 255
0.454978 0.332039 2.330917 255 255 255
1.414670 -0.391130 1.080063 255 255 255
0.139007 -0.583016 -0.562442 255 255 255
-0.552457 0.368700 -0.559388 255 255 255
0.805026 0.374148 0.768408 255 255 255
0.718834 -0.308995 -0.563130 255 255 255
1.408571 -0.142767 -0.580141 255 255 255
0.268504 -0.589778 0.572155 255 255 255
1.024591 0.265892 2.379642 255 255 255
1.368078 -0.540607 -0.466005 255 255 255
1.246690 -0.609983 1.624131 255 255 255
0.927176 -0.013063 -0.565688 255 255 255
0.722274 0.131192 -0.557953 255 255 255
1.414287 0.069378 0.859966 255 255 255
1.411044 -0.260843 1.572274 255 255 255
1.407023 -0.321353 0.673694 255 255 255
-0.551253 0.214589 0.583170 255 255 255
-0.531167 -0.264196 1.521298 255 255 255
-0.541683 0.366214 1.061550 255 255 255
0.666565 -0.189861 2.322483 255 255 255
-0.546824 0.373671 0.416261 255 255 255
0.127800 -0.347783 2.377184 255 255 255
1.407497 -0.510216 0.839949 255 255 255
0.090648 -0.598760 0.897804 255 255 255
0.418849 0.286292 2.361178 255 255 255
0.149683 -0.313701 -0.567136 255 255 255
1.416692 -0.030191 0.782879 255 255 255
1.427287 -0.596526 1.357632 255 255 255
0.126946 -0.201803 -0.587997 255 255 255
-0.549254 -0.112493 -0.250517 255 255 255
-0.538832 -0.158266 1.936364 255 255 255
1.419239 -0.319340 0.679688 255 255 255
-0.549120 -0.257697 0.408573 255 255 255
-0.556335 -0.277482 0.253863 255 255 255
0.086212 -0.593140 1.358479 255 255 255
-0.265582 -0.311767 -0.564641 255 255 255
-0.532607 0.151036 1.690622 255 255 255
-0.404454 -0.594570 1.035725 255 255 255
-0.456459 -0.200565 -0.572816 255 255 255
-0.545186 0.372628 -0.560253 255 255 255
-0.538941 0.315969 -0.569751 255 255 255
-0.441294 0.353015 -0.561358 255 255 255
0.139391 0.128548 -0.566433 255 255 255
0.585299 0.374630 -0.076812 255 255 255
-0.270590 -0.204005 -0.587675 255 255 255
-0.571531 -0.152737 0.275989 255 255 255
-0.545353 -0.590079 0.741927 255 255 255
0.627220 -0.170478 -0.562306 255 255 255
0.577416 -0.591855 1.416890 255 255 255
1.399543 0.209035 2.224740 255 255 255
0.089787 0.272856 0.763629 255 255 255
0.341009 -0.580544 -0.599730 255 255 255
1.050894 0.373774 1.908216 255 255 255
0.640165 -0.466456 2.360296 255 255 255
0.786315 -0.751564 -0.286097 255 255 255
1.415487 0.378158 0.089647 255 255 255
1.405050 0.047384 2.065713 255 255 255
0.625718 -0.604859 0.251870 255 255 255
0.752307 -0.593683 -0.070664 255 255 255
1.402872 -0.051503 2.388359 255 255 255
-0.062896 -0.012335 2.376797 255 255 255
1.130854 0.383546 0.251728 255 255 255
1.417542 -0.452704 0.104008 255 255 255
0.226688 -0.384777 -0.565541 255 255 255
-0.258850 -0.543015 2.359123 255 255 255
-0.561042 -0.284933 1.385762 255 255 255
0.765482 -0.592784 0.244528 255 255 255
0.442810 -0.600787 1.877651 255 255 255
0.731371 0.357385 1.692523 255 255 255
0.818074 0.149762 -0.560509 255 255 255
-0.557912 -0.106210 -0.080364 255 255 255
1.410624 0.366113 -0.239787 255 255 255
-0.434595 -0.213253 -0.563074 255 255 255
1.322505 -0.549749 -0.570099 255 255 255
-0.594628 0.044641 1.259858 255 255 255
0.560880 -0.567086 -0.205189 255 255 255
-0.563068 -0.603863 0.592006 255 255 255
1.434334 -0.258968 1.720256 255 255 255
-0.540843 -0.108148 0.404218 255 255 255
1.127451 0.374967 -0.577844 255 255 255
-0.558514 -0.456860 0.721701 255 255 255
0.266272 0.380810 0.574861 255 255 255
0.430938 -0.174471 -0.557555 255 255 255
-0.142453 -0.381770 -0.564570 255 255 255
-0.543126 -0.581328 -0.410596 255 255 255
-0.549721 -0.585574 0.095817 255 255 255
-0.058231 0.321760 -0.568864 255 255 255
-0.543518 0.369512 1.394164 255 255 255
0.733334 -0.631495 1.608781 255 255 255
-0.564368 -0.108089 0.251728 255 255 255
0.427439 0.381594 1.053463 255 255 255
0.814583 0.374493 0.648660 255 255 255
0.263698 -0.593429 1.059713 255 255 255
-0.558229 -0.459871 0.098443 255 255 255
1.008616 0.293508 -0.549444 255 255 255
-0.550644 -0.108590 0.092222 255 255 255
0.931094 0.375350 0.247595 255 255 255
-0.559313 -0.421348 1.269034 255 255 255
-0.534365 0.375524 1.522391 255 255 255
1.000007 -0.371810 -0.553964 255 255 255
-0.223687 0.369978 1.234292 255 255 255
0.098210 -0.587263 1.210889 255 255 255
-0.547440 0.071872 -0.399184 255 255 255
0.756084 -0.576699 -0.514715 255 255 255
0.696599 0.379537 0.808943 255 255 255
-0.342656 -0.173397 -0.554521 255 255 255
-0.225099 -0.594000 0.747454 255 255 255
-0.459135 0.320758 -0.574685 255 255 255
0.225712 -0.386907 -0.565805 255 255 255
-0.570211 -0.293106 0.737807 255 255 255
-0.353516 0.154033 -0.570114 255 255 255
0.616566 0.284470 -0.552631 255 255 255
-0.369367 -0.593455 1.383002 255 255 255
-0.348773 -0.047205 -0.559687 255 255 255
-0.551085 0.052685 0.733011 255 255 255
1.409380 -0.419987 0.251721 255 255 255
1.363480 -0.343129 2.417167 255 255 255
1.445789 -0.321646 1.041078 255 255 255
-0.555768 -0.596005 0.250301 255 255 255
1.409291 -0.057394 0.964297 255 255 255
1.314531 -0.233728 1.549459 255 255 255
0.129389 -0.576736 2.382983 255 255 255
0.939055 0.379694 -0.075667 255 255 255
0.600372 -0.601500 1.730570 255 255 255
-0.548855 -0.494188 2.380451 255 255 255
0.240141 -0.381313 2.380754 255 255 255
1.395435 0.282134 1.195741 255 255 255
1.226901 0.278656 2.395483 255 255 255
0.435382 -0.595716 0.092648 255 255 255
0.598524 -0.591793 -0.392995 255 255 255
-0.356139 0.156262 -0.569136 255 255 255
1.417527 0.026750 1.387330 255 255 255
0.435120 0.376873 1.156237 255 255 255
1.236082 -0.596822 -0.255523 255 255 255
0.342270 0.107444 2.381426 255 255 255
1.212870 -0.597139 1.917405 255 255 255
0.823185 -0.496659 -0.556517 255 255 255
1.403745 -0.340181 0.543015 255 255 255
0.329959 -0.008145 -0.569432 255 255 255
0.251516 -0.595988 1.030714 255 255 255
0.242668 -0.466149 -0.554607 255 255 255
1.222904 -0.499725 2.426191 255 255 255
0.926135 -0.008333 -0.562163 255 255 255
-0.058669 0.382598 0.427092 255 255 255
-0.058998 -0.600052 1.399214 255 255 255
1.111364 0.379389 0.249119 255 255 255
-0.551225 -0.108781 0.579884 255 255 255
1.417322 -0.442817 -0.232491 255 255 255
0.442399 -0.057388 -0.566696 255 255 255
0.435384 0.350965 1.716297 255 255 255
-0.231143 0.378556 0.445917 255 255 255
0.572880 0.367222 1.727184 255 255 255
0.442642 -0.472408 -0.553870 255 255 255
0.833524 -0.381025 -0.575519 255 255 255
1.074432 -0.605594 2.385305 255 255 255
-0.555100 0.049140 1.379702 255 255 255
0.173461 0.364698 0.261105 255 255 255
0.596342 0.379219 0.250684 255 255 255
0.739553 -0.588623 1.736381 255 255 255
0.440774 0.381623 0.250032 255 255 255
-0.550419 0.001508 1.832353 255 255 255
-0.379071 0.379954 0.939898 255 255 255
-0.052179 -0.592249 1.246056 255 255 255
0.663209 0.382267 1.157331 255 255 255
1.173595 -0.560421 1.313240 255 255 255
-0.214737 0.380510 0.596470 255 255 255
1.114505 -0.044483 2.739828 255 255 255
1.355636 0.003164 0.531435 255 255 255
0.458632 0.389634 1.871535 255 255 255
1.400765 -0.374989 1.058228 255 255 255
1.441208 0.391790 -0.600333 255 255 255
0.627588 0.151010 -0.562497 255 255 255
0.032513 -0.148208 -0.563038 255 255 255
0.922409 0.131459 -0.562422 255 255 255
1.405183 -0.237976 0.229159 255 255 255
1.175884 -0.367180 2.367006 255 255 255
0.129524 -0.549522 -0.566394 255 255 255
1.421878 0.050449 -0.397440 255 255 255
1.409903 0.064694 1.408759 255 255 255
0.029804 0.357721 1.862786 255 255 255
0.929271 -0.595569 0.410077 255 255 255
1.122151 -0.198193 -0.563983 255 255 255
1.426223 -0.088962 0.121961 255 255 255
1.078892 -0.601203 0.103049 255 255 255
0.094592 -0.595760 1.079869 255 255 255
0.041043 0.154452 -0.559695 255 255 255
-0.535906 -0.534388 1.822303 255 255 255
1.379110 -0.477741 -0.549328 255 255 255
0.441864 0.371836 0.058813 255 255 255
-0.243185 -0.548933 -0.565565 255 255 255
1.413618 -0.261611 0.096720 255 255 255
0.617922 0.278527 2.383068 255 255 255
-0.226917 0.374149 0.420562 255 255 255
-0.625037 -0.549311 -0.669096 255 255 255
0.433131 -0.597426 2.063962 255 255 255
-0.552555 -0.446072 -0.398525 255 255 255
-0.402574 -0.596385 1.061098 255 255 255
0.375077 -0.653053 -0.663450 255 255 255
-0.049681 0.106215 2.366503 255 255 255
0.829610 0.269243 -0.556202 255 255 255
1.413972 0.242855 0.935419 255 255 255
-0.555990 -0.276771 0.247081 255 255 255
-0.543253 -0.577556 0.234730 255 255 255
0.912929 0.369387 -0.229093 255 255 255
-0.550524 -0.438995 0.898845 255 255 255
0.441459 0.377671 1.823343 255 255 255
-0.547481 -0.598971 1.070015 255 255 255
0.823239 0.293213 -0.558910 255 255 255
-0.548584 -0.205250 1.687652 255 255 255
1.080472 0.385611 -0.254811 255 255 255
-0.250316 -0.536845 -0.564333 255 255 255
-0.537339 -0.535754 -0.669147 255 255 255
-0.391273 -0.591221 1.229572 255 255 255
1.251682 0.383251 0.091507 255 255 255
-0.555190 -0.276535 1.389555 255 255 255
-0.543235 -0.251980 -0.247983 255 255 255
-1.579300 -0.103457 13.817147 255 255 255
0.050624 0.392781 2.179739 255 255 255
-0.739062 -0.128584 -0.087166 255 255 255
-0.243397 -0.218476 -0.564413 255 255 255
-0.147737 -0.477266 -0.566795 255 255 255
-0.280421 0.357701 2.378266 255 255 255
-0.545913 0.372406 -0.404641 255 255 255
-0.547792 -0.490770 2.378747 255 255 255
2.012575 0.352207 -0.538971 255 255 255
-0.377314 0.379032 0.423098 255 255 255
-0.544334 0.363529 2.121291 255 255 255
-0.461949 0.000179 -0.586493 255 255 255
0.335362 -0.589308 -0.567481 255 255 255
0.820948 0.380534 0.656584 255 255 255
-0.156993 0.011422 3.623209 255 255 255
0.704344 -0.680964 2.151747 255 255 255
0.828559 0.152854 -0.567133 255 255 255
0.338079 -0.010960 -0.570626 255 255 255
1.416092 0.205653 2.376574 255 255 255
1.083524 -0.598622 -0.406370 255 255 255
-0.545262 -0.431947 -0.397205 255 255 255
-0.134272 -0.373533 -0.551640 255 255 255
-0.550993 -0.108940 1.075580 255 255 255
1.408459 0.020539 0.562086 255 255 255
-0.542402 0.213043 0.903078 255 255 255
-0.396507 -0.592713 1.208962 255 255 255
-0.553802 -0.252879 -0.101371 255 255 255
0.030391 -0.496229 -0.589644 255 255 255
0.595724 0.157840 2.282312 255 255 255
1.211296 -0.487789 2.383733 255 255 255
1.406620 0.361142 1.569137 255 255 255
-0.417148 -0.605852 0.903127 255 255 255
1.073051 -0.594760 0.098688 255 255 255
1.411948 -0.245449 0.397303 255 255 255
-0.545032 -0.248184 -0.095632 255 255 255
-0.526117 0.376444 0.757501 255 255 255
-0.069593 -0.347448 -0.583294 255 255 255
1.220285 0.281336 -0.562717 255 255 255
0.648566 -0.518708 0.069287 255 255 255
-0.145551 -0.147778 -0.564672 255 255 255
0.925723 0.130477 -0.559061 255 255 255
-0.564119 0.288121 2.391734 255 255 255
1.398100 0.283440 1.208503 255 255 255
-0.556056 -0.221062 1.814432 255 255 255
1.114212 -0.605516 -0.400393 255 255 255
0.325362 -0.578242 2.380387 255 255 255
0.218019 0.256302 -0.540525 255 255 255
0.649347 -0.499570 -0.590968 255 255 255
1.314667 0.115609 -0.559500 255 255 255
1.416535 -0.423838 -0.393310 255 255 255
1.237407 -0.605213 1.620201 255 255 255
1.357477 0.256847 1.160280 255 255 255
1.423237 0.047238 -0.407797 255 255 255
-0.563233 -0.225343 1.816066 255 255 255
1.411908 0.100955 0.567104 255 255 255
0.487589 -0.181279 -0.521481 255 255 255
-0.228894 0.375895 0.883814 255 255 255
1.327783 -0.554794 -0.514130 255 255 255
-0.558161 -0.109680 0.262408 255 255 255
-0.547683 0.372310 0.079444 255 255 255
0.522891 -0.586135 2.384427 255 255 255
-0.154308 -0.179877 -0.567993 255 255 255
0.620266 -0.385779 -0.566863 255 255 255
0.936433 -0.571428 2.379418 255 255 255
0.266373 0.390543 0.433790 255 255 255
-0.150777 -0.356390 -0.519821 255 255 255
-0.161541 0.146763 2.382162 255 255 255
0.443828 -0.597141 2.138488 255 255 255
0.823633 -0.360744 -0.564780 255 255 255
0.807135 -0.160310 2.366345 255 255 255
1.217035 -0.055730 2.377954 255 255 255
0.048634 -0.386903 -0.571840 255 255 255
1.406980 -0.398537 0.723524 255 255 255
1.412362 -0.259693 0.409398 255 255 255
-0.060005 -0.531779 2.353831 255 255 255
1.247737 0.377556 0.105336 255 255 255
1.390578 0.131892 2.351262 255 255 255
0.226014 0.339914 1.033472 255 255 255
1.420417 -0.136072 2.399106 255 255 255
-0.548521 -0.547824 1.818738 255 255 255
1.310890 -0.541709 2.387885 255 255 255
-0.244817 0.367280 -0.557907 255 255 255
0.421666 0.278121 2.372511 255 255 255
-0.552869 0.074522 0.263783 255 255 255
-0.251075 -0.629994 0.975157 255 255 255
1.415308 -0.117339 0.246619 255 255 255
0.748589 0.113957 2.404414 255 255 255
1.322920 -0.001450 -0.567118 255 255 255
0.432246 -0.603111 0.743141 255 255 255
-0.540168 0.081666 0.581600 255 255 255
0.913162 -0.552862 -0.567074 255 255 255
-0.536099 -0.290907 -0.175019 255 255 255
1.098228 -0.595170 2.010519 255 255 255
-0.569672 -0.262881 0.781615 255 255 255
0.225395 0.287067 2.335960 255 255 255
-0.251641 0.109716 2.379563 255 255 255
-0.545318 -0.165837 2.382131 255 255 255
-0.550380 0.371607 0.260332 255 255 255
1.003298 0.411091 -0.080223 255 255 255
-0.545360 0.285103 2.382567 255 255 255
-0.229536 0.365849 0.848964 255 255 255
0.426388 -0.592919 0.421173 255 255 255
0.410625 0.373951 0.914868 255 255 255
0.424961 0.375693 0.743104 255 255 255
1.310640 0.118327 -0.559590 255 255 255
1.496402 -0.614579 2.727730 255 255 255
1.033665 -0.481917 -0.565504 255 255 255
0.900547 -0.584489 0.253549 255 255 255
1.412865 -0.096951 0.100428 255 255 255
0.925974 0.375394 0.408800 255 255 255
-0.551715 -0.423095 1.390719 255 255 255
-0.147900 -0.149169 -0.567240 255 255 255
1.420657 0.236723 1.885632 255 255 255
1.024136 0.172986 -0.568316 255 255 255
0.940614 -0.569628 0.440519 255 255 255
1.106774 -0.599765 2.011130 255 255 255
0.435908 0.372225 0.527328 255 255 255
0.798811 0.367729 0.522745 255 255 255
-0.556372 0.379345 0.084274 255 255 255
0.336792 -0.011959 -0.568034 255 255 255
0.234407 -0.467318 2.367921 255 255 255
0.995426 0.334748 1.429703 255 255 255
1.208835 -0.048407 -0.559596 255 255 255
-0.552406 -0.439600 0.095727 255 255 255
-0.259292 -0.011058 -0.574955 255 255 255
0.901972 0.336453 -0.552080 255 255 255
-0.546137 0.049429 0.240040 255 255 255
-0.540035 0.208266 1.241306 255 255 255
-0.533832 0.063225 0.248244 255 255 255
1.386139 0.043917 2.035815 255 255 255
0.091067 -0.599663 0.422293 255 255 255
-0.466808 0.483934 1.490661 255 255 255
0.133472 -0.007298 -0.557272 255 255 255
1.421876 -0.094157 1.721916 255 255 255
-0.535357 -0.351487 -0.563308 255 255 255
0.824541 -0.384187 -0.572038 255 255 255
1.400677 -0.298505 -0.380624 255 255 255
0.669195 -0.507181 -0.518913 255 255 255
1.397471 0.001758 1.124083 255 255 255
1.409685 0.214622 1.416222 255 255 255
1.413807 0.006661 0.535403 255 255 255
1.214584 -0.024096 -0.697168 255 255 255
0.617833 0.283501 2.411671 255 255 255
0.224872 -0.367076 2.322146 255 255 255
-0.057736 0.384142 0.422601 255 255 255
1.409854 -0.582172 0.487029 255 255 255
0.745012 0.373567 -0.076163 255 255 255
-0.372319 -0.374463 2.378857 255 255 255
-0.251253 0.128650 -0.562646 255 255 255
1.420723 -0.316714 1.718439 255 255 255
0.523684 0.127902 -0.555447 255 255 255
0.030598 -0.062910 -0.574623 255 255 255
1.408819 0.045062 -0.246615 255 255 255
0.603085 -0.595886 0.094799 255 255 255
1.017499 -0.235554 -0.751746 255 255 255
0.232865 0.157750 -0.567220 255 255 255
-0.464168 0.135874 -0.574938 255 255 255
1.409583 0.006001 0.553457 255 255 255
1.319091 -0.544120 -0.564118 255 255 255
0.615835 -0.151842 2.397321 255 255 255
1.101472 -0.600493 1.684482 255 255 255
-0.268409 0.133799 -0.591597 255 255 255
1.407779 -0.560572 0.804613 255 255 255
-0.545246 -0.243055 1.082281 255 255 255
0.097735 -0.600055 0.419452 255 255 255
1.412836 0.242186 1.873877 255 255 255
0.614645 0.275286 2.359973 255 255 255
0.438614 -0.593581 -0.077266 255 255 255
-0.175328 0.379166 -0.447896 255 255 255
1.273422 0.339053 0.499523 255 255 255
1.414304 -0.380530 1.071468 255 255 255
-0.547761 0.052791 0.243613 255 255 255
0.426813 -0.593556 0.899971 255 255 255
1.414492 0.226867 -0.393966 255 255 255
-0.252066 -0.008425 -0.564944 255 255 255
-0.539741 -0.593121 1.075908 255 255 255
-0.553574 0.046181 1.500362 255 255 255
1.099409 -0.594622 -0.063306 255 255 255
1.114338 0.330086 -0.558938 255 255 255
1.406062 0.311047 1.050706 255 255 255
1.228456 -0.380043 -0.568744 255 255 255
-0.250905 -0.602372 1.048584 255 255 255
1.013208 0.368609 1.588389 255 255 255
0.423520 0.375399 0.737832 255 255 255
-0.520921 0.369330 1.522527 255 255 255
0.728942 0.359884 -0.139858 255 255 255
0.762369 -0.556809 -0.656167 255 255 255
1.076381 0.381124 1.722322 255 255 255
-0.373685 -0.569050 0.400164 255 255 255
0.734151 0.326802 -0.563748 255 255 255
1.123010 0.347930 2.367488 255 255 255
-0.550437 0.050179 1.222738 255 255 255
1.333022 -0.345674 -0.565228 255 255 255
1.085352 0.385241 -0.249106 255 255 255
0.343951 -0.315640 -0.552449 255 255 255
-0.246912 0.116876 -0.558737 255 255 255
-0.214889 -0.592746 0.422053 255 255 255
0.750916 0.380190 2.243038 255 255 255
1.412236 -0.425749 0.825834 255 255 255
-0.546264 -0.255632 0.409387 255 255 255
0.441027 -0.591714 0.238066 255 255 255
0.607128 -0.586563 1.594993 255 255 255
1.413813 0.208023 2.377529 255 255 255
0.736837 -0.548705 -0.562869 255 255 255
-0.455097 -0.008615 -0.570371 255 255 255
-0.457760 -0.198554 -0.574118 255 255 255
-0.553334 -0.093287 1.224592 255 255 255
-0.214735 -0.594208 0.422233 255 255 255
0.665053 0.375778 1.392781 255 255 255
1.403024 -0.118370 2.373687 255 255 255
-0.554460 -0.273403 -0.564933 255 255 255
-0.558722 0.310534 -0.581571 255 255 255
0.592547 -0.592912 0.247692 255 255 255
0.658924 0.364141 1.362442 255 255 255
-0.518447 -0.108770 0.070768 255 255 255
-0.527348 0.097382 2.051759 255 255 255
0.729887 -0.588742 -0.567052 255 255 255
0.611781 0.389532 0.429880 255 255 255
-0.330536 0.170520 -0.550408 255 255 255
0.049170 -0.172255 -0.556605 255 255 255
1.412242 0.135713 1.387794 255 255 255
0.087370 0.382361 0.734458 255 255 255
0.276910 -0.599828 1.385408 255 255 255
1.428658 -0.096991 -0.069064 255 255 255
1.299391 -0.319529 -0.548602 255 255 255
-0.555705 0.049223 -0.283129 255 255 255
0.589564 -0.596640 0.252194 255 255 255
-0.551871 0.054353 1.389055 255 255 255
0.734498 -0.198251 -0.570351 255 255 255
-0.552204 -0.437487 1.613678 255 255 255
-0.356116 -0.375115 2.372323 255 255 255
0.104879 -0.635061 0.450862 255 255 255
1.409383 -0.405023 0.719363 255 255 255
0.428927 -0.597107 0.426407 255 255 255
1.409444 -0.420209 2.207490 255 255 255
1.405954 0.014883 0.555279 255 255 255
1.607851 -1.303085 0.044036 255 255 255
-0.167768 -0.472416 -0.562575 255 255 255
-0.559195 -0.251981 1.112217 255 255 255
-0.169016 0.153847 2.307007 255 255 255
-0.458497 0.327627 2.379580 255 255 255
-0.559186 -0.121297 0.893182 255 255 255
-0.238853 0.104506 -0.558092 255 255 255
0.117833 0.399582 1.105942 255 255 255
-0.541208 -0.158755 1.934205 255 255 255
0.522054 -0.554610 -0.568438 255 255 255
-0.349937 0.171011 2.385725 255 255 255
1.076769 0.376794 -0.244426 255 255 255
0.108695 -0.593141 0.749894 255 255 255
0.262608 -0.589665 0.915459 255 255 255
0.139380 -0.337248 -0.618736 255 255 255
-0.410909 -0.599446 1.056662 255 255 255
-0.544021 0.058211 -0.078193 255 255 255
-0.281711 0.345656 0.374138 255 255 255
0.606405 0.376300 2.039196 255 255 255
1.401010 0.363380 1.723683 255 255 255
0.262017 0.377234 1.080214 255 255 255
0.268329 0.384141 0.777639 255 255 255
1.402982 0.266172 0.548136 255 255 255
1.088705 0.318059 -0.549706 255 255 255
-0.505527 0.345510 -0.384832 255 255 255
1.096135 0.368768 1.826258 255 255 255
0.101589 0.371017 1.381077 255 255 255
1.411842 0.218414 1.406837 255 255 255
0.666411 0.375185 1.376222 255 255 255
1.407586 0.353754 -0.242013 255 255 255
1.413006 -0.174528 0.521679 255 255 255
1.073271 0.360627 0.229520 255 255 255
1.389157 0.182712 1.751357 255 255 255
-0.013085 -0.076472 -0.066800 255 255 255
0.431027 -0.030446 -0.560640 255 255 255
1.415757 -0.446229 0.097853 255 255 255
-0.264851 -0.591159 2.384507 255 255 255
1.407398 -0.088052 2.081908 255 255 255
1.315207 0.130695 -0.557062 255 255 255
0.442050 -0.402086 -0.591541 255 255 255
0.816098 -0.375128 2.381788 255 255 255
0.929473 0.370644 1.815489 255 255 255
-0.554822 0.372644 -0.560731 255 255 255
1.309531 0.009795 -0.564076 255 255 255
0.582858 0.380919 -0.232338 255 255 255
0.925371 -0.593231 0.259373 255 255 255
0.564739 0.364569 2.060606 255 255 255
0.327554 0.015151 -0.569327 255 255 255
-0.371604 0.375509 1.077814 255 255 255
0.441536 0.374288 1.397843 255 255 255
0.600866 -0.596080 0.085983 255 255 255
1.410676 0.093648 1.055066 255 255 255
0.673454 -0.532911 -0.600387 255 255 255
1.044594 0.374138 1.589968 255 255 255
0.748945 -0.594699 0.266773 255 255 255
0.718435 0.331312 2.389911 255 255 255
0.222575 -0.376301 -0.555525 255 255 255
0.265585 -0.587583 1.060653 255 255 255
-0.555815 0.216439 0.901786 255 255 255
-0.545158 -0.580333 -0.415462 255 255 255
0.481522 0.420559 1.293156 255 255 255
-0.358405 0.156102 -0.577988 255 255 255
-0.551072 -0.255480 1.227050 255 255 255
0.024210 -0.053717 0.691345 255 255 255
1.390725 0.173118 2.281271 255 255 255
-0.372132 0.376582 0.916026 255 255 255
1.407864 -0.259840 1.408870 255 255 255
0.828507 -0.372397 -0.565827 255 255 255
1.119637 0.381658 -0.219023 255 255 255
-0.556435 0.240380 0.093512 255 255 255
-0.162819 -0.147323 -0.560573 255 255 255
-0.515926 0.364402 1.385965 255 255 255
-0.444408 0.369326 -0.560955 255 255 255
0.519651 -0.322210 2.379905 255 255 255
1.420625 -0.282171 -0.396030 255 255 255
0.324937 -0.316651 2.362062 255 255 255
-0.547771 0.217069 -0.083331 255 255 255
-0.257815 0.100612 -0.558022 255 255 255
-0.186448 0.170063 2.398010 255 255 255
0.260923 0.378399 1.223738 255 255 255
0.226750 0.175248 -0.565075 255 255 255
0.326154 0.066986 1.232459 255 255 255
0.602099 -0.598496 -0.396590 255 255 255
1.396773 0.073014 1.733116 255 255 255
0.333467 -0.198171 -0.563160 255 255 255
0.587949 0.369595 0.404961 255 255 255
-0.546673 0.220764 -0.394976 255 255 255
1.415262 -0.204488 0.501105 255 255 255
1.057405 -0.610831 0.285050 255 255 255
1.560891 0.393377 -0.434980 255 255 255
-0.534591 -0.541420 1.808187 255 255 255
-0.356428 0.266575 -0.558091 255 255 255
-0.372700 -0.057274 -0.581813 255 255 255
0.130148 0.105664 -0.567316 255 255 255
0.748515 0.029579 -1.123788 255 255 255
-0.548984 -0.531044 2.088899 255 255 255
1.403109 0.203364 2.243710 255 255 255
0.607120 -0.613981 0.097424 255 255 255
0.453926 0.163251 -0.599019 255 255 255
-0.164597 -0.060576 -0.561679 255 255 255
1.414062 -0.539178 0.422178 255 255 255
0.437633 -0.592464 -0.555196 255 255 255
0.948558 -0.616884 2.380397 255 255 255
0.256541 -0.436182 -0.641453 255 255 255
-0.532980 -0.506300 2.195789 255 255 255
-0.547411 -0.275362 2.036645 255 255 255
0.136162 -0.585052 -0.565819 255 255 255
1.412616 -0.421626 1.886178 255 255 255
0.263627 0.376414 0.889707 255 255 255
1.238405 -0.599851 1.721734 255 255 255
1.028020 0.375042 1.139855 255 255 255
1.409107 0.072281 2.362417 255 255 255
-0.308708 -0.363216 -0.537999 255 255 255
0.919116 0.379943 1.404608 255 255 255
0.720033 0.344080 -0.568213 255 255 255
0.603385 0.372129 1.661032 255 255 255
1.022449 -0.577434 2.026700 255 255 255
0.604372 0.377290 1.720517 255 255 255
-0.215529 0.337448 1.161193 255 255 255
0.596761 -0.601208 -0.067908 255 255 255
0.337298 0.357783 -0.583599 255 255 255
-0.526694 -0.566544 -0.543611 255 255 255
0.637197 0.274105 -0.540176 255 255 255
-0.057320 0.382784 0.580571 255 255 255
0.411510 0.365910 1.214150 255 255 255
-0.457332 0.389171 0.159914 255 255 255
0.744053 -0.011968 -0.575398 255 255 255
-0.545483 -0.587678 1.071402 255 255 255
-0.528624 0.205738 0.712428 255 255 255
0.231717 -0.361643 2.402684 255 255 255
0.529691 0.346695 -0.574584 255 255 255
1.395990 -0.405527 -0.086151 255 255 255
1.452133 -0.590861 2.170641 255 255 255
1.526298 -0.147691 -0.221027 255 255 255
0.607140 -0.589112 1.591919 255 255 255
-0.529167 -0.251547 -0.387316 255 255 255
1.088560 -0.590048 0.085908 255 255 255
1.408384 0.012265 0.851896 255 255 255
0.716882 -0.581656 1.891672 255 255 255
1.404143 -0.123305 2.369532 255 255 255
0.443747 0.381976 1.162996 255 255 255
-0.249147 0.334037 -0.563322 255 255 255
1.318178 -0.328931 -0.559362 255 255 255
0.109422 0.380803 0.577289 255 255 255
0.247022 -0.477205 -0.559503 255 255 255
0.337018 0.374011 -0.566588 255 255 255
1.424551 -0.189038 0.999122 255 255 255
0.110492 -0.598545 1.060394 255 255 255
-0.502959 0.041769 -0.148107 255 255 255
1.455848 0.215715 0.075499 255 255 255
-0.565089 -0.582854 0.104332 255 255 255
0.586359 0.377156 2.376078 255 255 255
1.593357 0.412469 -0.279047 255 255 255
1.418677 0.366778 -0.058282 255 255 255
1.056152 0.377243 1.582125 255 255 255
-0.426991 0.123973 -0.548302 255 255 255
1.264217 0.382071 2.064993 255 255 255
0.264323 -0.596548 0.591946 255 255 255
-0.273352 -0.325922 -0.581004 255 255 255
-0.549560 -0.111524 1.077042 255 255 255
1.418576 0.237842 -0.080761 255 255 255
1.191041 -0.332109 -0.937070 255 255 255
1.086040 -0.527708 -0.548908 255 255 255
-0.547507 -0.096795 1.393967 255 255 255
-0.547818 -0.256635 1.079751 255 255 255
1.405139 -0.079680 1.581944 255 255 255
1.026547 0.155076 -0.563739 255 255 255
-0.554549 0.038627 1.098776 255 255 255
-0.542830 -0.367709 2.381296 255 255 255
-0.561270 -0.304815 0.765840 255 255 255
0.924051 -0.594308 1.408379 255 255 255
-0.057693 -0.595704 0.419146 255 255 255
1.209964 -0.047770 -0.546835 255 255 255
0.433181 -0.590748 -0.076187 255 255 255
1.082268 0.369701 2.200561 255 255 255
0.437738 0.279641 -0.582712 255 255 255
-0.392147 0.380459 0.581213 255 255 255
0.129749 -0.663504 1.132390 255 255 255
0.437589 0.379825 1.161517 255 255 255
-0.560336 -0.129292 0.719962 255 255 255
1.178010 0.362892 0.101854 255 255 255
1.441223 -0.514953 1.274952 255 255 255
0.129906 0.014215 -0.565584 255 255 255
-0.104077 -0.193170 -0.558734 255 255 255
0.624664 0.177693 -0.570950 255 255 255
1.422571 0.071534 -0.227490 255 255 255
0.922517 -0.588765 1.993689 255 255 255
-0.533718 0.146136 -0.558727 255 255 255
-0.771229 0.331770 -1.022197 255 255 255
0.503708 -0.183664 2.317607 255 255 255
-0.611884 -0.656230 -0.623979 255 255 255
1.205448 -0.594799 1.578488 255 255 255
-0.448738 0.362316 2.364407 255 255 255
-0.217459 -0.590436 1.229784 255 255 255
1.407789 -0.101057 1.890115 255 255 255
-0.233745 0.361201 2.399193 255 255 255
-0.308274 0.379931 -0.079960 255 255 255
-0.246539 0.384917 0.894407 255 255 255
0.783083 0.393281 0.088508 255 255 255
0.907880 -0.332203 -0.552460 255 255 255
-0.240006 0.381369 0.571087 255 255 255
0.444773 -0.588316 0.138201 255 255 255
0.828763 -0.486464 -0.559711 255 255 255
-0.047286 -0.601295 0.941919 255 255 255
1.121398 -0.219968 2.387876 255 255 255
0.929480 -0.214666 -0.572083 255 255 255
0.275662 -0.619591 0.618361 255 255 255
-0.146438 -0.388830 -0.570869 255 255 255
-0.398299 0.376776 0.546774 255 255 255
-0.155636 0.138329 2.338176 255 255 255
0.436944 -0.596929 1.403976 255 255 255
0.130559 -0.554527 -0.572141 255 255 255
0.113069 0.387712 0.910730 255 255 255
0.224786 0.142252 2.358006 255 255 255
0.431861 -0.170285 -0.561507 255 255 255
-0.146849 0.178052 -0.565199 255 255 255
0.260182 0.379446 0.543237 255 255 255
0.589206 0.383245 0.100723 255 255 255
3.277975 -0.907698 -6.406227 255 255 255
-0.358235 -0.033150 -0.575165 255 255 255
1.097677 -0.594949 2.025971 255 255 255
-0.210754 0.371913 1.384140 255 255 255
-0.262377 0.323955 2.384010 255 255 255
1.413182 0.040684 0.275758 255 255 255
0.637133 -0.485272 2.394333 255 255 255
0.765379 -0.592013 1.411049 255 255 255
1.408993 0.070063 0.817347 255 255 255
0.484325 -0.336715 -0.781570 255 255 255
1.483742 -0.619666 1.519591 255 255 255
1.401638 0.375178 0.414259 255 255 255
-0.166012 -0.476115 -0.564137 255 255 255
1.396892 -0.188009 2.386961 255 255 255
0.446028 -0.589393 1.751010 255 255 255
1.406395 -0.055776 0.959996 255 255 255
-0.537826 -0.493564 2.368782 255 255 255
0.600095 -0.260864 -0.643317 255 255 255
0.912106 0.367641 0.087868 255 255 255
-0.554519 -0.278808 -0.233182 255 255 255
0.118757 -0.618520 0.580645 255 255 255
-0.541501 0.377575 0.899638 255 255 255
0.811851 -0.375355 2.374810 255 255 255
-0.430987 -0.547797 -0.556424 255 255 255
0.526915 -0.222169 -0.572967 255 255 255
-0.450036 0.327091 2.356377 255 255 255
1.030034 -0.535618 1.836009 255 255 255
1.051707 0.254992 1.898139 255 255 255
1.094169 0.374082 1.858219 255 255 255
-1.248554 0.109998 0.387646 255 255 255
1.403659 -0.202553 0.974742 255 255 255
0.807423 0.370494 1.156177 255 255 255
0.448128 -0.189855 -0.577569 255 255 255
-0.305086 0.381281 2.145458 255 255 255
-0.570642 -0.102179 -0.254780 255 255 255
0.577387 -0.604779 1.723475 255 255 255
-0.550125 -0.255027 1.083486 255 255 255
-0.401989 0.377351 0.724702 255 255 255
-0.551756 -0.274491 1.692616 255 255 255
1.408193 0.151491 1.402839 255 255 255
0.812761 0.379439 1.135434 255 255 255
0.754194 -0.599455 -0.068789 255 255 255
-0.541809 -0.257515 0.405675 255 255 255
-0.366636 -0.474514 -0.566170 255 255 255
0.674176 0.379443 0.904321 255 255 255
-0.201963 0.265187 1.735324 255 255 255
-0.252963 -0.007783 -0.562932 255 255 255
0.814934 -0.172435 2.377037 255 255 255
0.449367 -0.603208 2.144992 255 255 255
0.720710 0.106060 -0.568304 255 255 255
0.234423 -0.606601 1.253808 255 255 255
-0.551082 0.075952 0.585959 255 255 255
0.131670 -0.195580 2.376820 255 255 255
-0.546126 -0.421342 0.080634 255 255 255
0.263891 -0.593204 1.239177 255 255 255
1.091774 0.377930 0.245638 255 255 255
-0.235187 0.383933 1.066638 255 255 255
1.420100 0.368662 0.261089 255 255 255
0.460004 0.393318 0.429263 255 255 255
-0.231001 0.324198 -0.538065 255 255 255
