-2.004075 1.484372 -1.815013 255 255 255
0.269651 -0.589217 1.271368 255 255 255
-0.662166 -2.041430 2.015358 255 255 255
-1.891412 -1.559773 1.383377 255 255 255
2.096036 -2.125462 5.078486 255 255 255
5.030851 -2.026243 -0.896062 255 255 255
2.844306 -1.986131 3.768826 255 255 255
1.542214 0.918833 7.898879 255 255 255
-0.909159 0.182521 1.182577 255 255 255
1.198502 -0.762124 -1.976513 255 255 255
9.229756 -1.917872 -1.375704 255 255 255
2.248571 -0.485690 -2.013932 255 255 255
8.280064 -1.930434 -1.118004 255 255 255
-1.293603 -0.968261 0.614242 255 255 255
2.879251 0.111278 1.134065 255 255 255
-0.950003 -0.624346 1.218138 255 255 255
0.955607 -2.153126 2.126476 255 255 255
-0.123471 0.113576 1.595266 255 255 255
-2.021892 -1.423005 0.302960 255 255 255
2.417956 -2.369200 -0.901145 255 255 255
5.481794 0.438763 -1.648468 255 255 255
2.720221 1.349876 0.343738 255 255 255
4.463327 1.315215 -1.291393 255 255 255
2.934610 -0.581345 -1.989435 255 255 255
-1.844993 1.358506 2.713036 255 255 255
-1.596209 -1.066352 1.034247 255 255 255
2.867571 0.051093 2.965201 255 255 255
-1.378847 0.119662 -0.627879 255 255 255
5.139934 0.885116 2.164714 255 255 255
0.552953 -1.306493 -2.417018 255 255 255
0.950630 1.344980 5.110493 255 255 255
-1.940413 -1.496490 -1.410423 255 255 255
1.075768 -1.695408 -1.793661 255 255 255
1.457952 -2.478084 5.510938 255 255 255
2.923291 -0.109600 1.168105 255 255 255
6.202548 -2.105074 -0.662517 255 255 255
2.599053 -2.111201 -2.018856 255 255 255
2.852058 -1.682133 -1.929343 255 255 255
7.102503 -1.634993 -1.792615 255 255 255
7.746574 -0.550839 -1.872609 255 255 255
2.512387 -0.782694 -1.980726 255 255 255
1.922294 1.284276 -2.037598 255 255 255
0.907366 -1.338983 -1.982548 255 255 255
2.827536 -0.941141 0.783546 255 255 255
8.663462 -1.670441 -0.482118 255 255 255
2.885928 0.236432 4.052139 255 255 255
-1.702954 0.162368 3.844151 255 255 255
8.500504 -0.387489 1.612359 255 255 255
9.057864 0.955105 -0.380379 255 255 255
-0.966445 -0.242702 1.208917 255 255 255
6.198468 -2.133360 1.639460 255 255 255
3.517910 1.246929 8.407575 255 255 255
4.807231 0.432053 -2.031259 255 255 255
0.882865 -1.966073 3.413630 255 255 255
-1.624130 -0.048803 -2.040146 255 255 255
2.153988 1.412682 0.369310 255 255 255
2.708531 1.351970 6.240976 255 255 255
-0.955402 0.672876 1.259226 255 255 255
0.124157 0.183378 1.193316 255 255 255
-1.989053 -0.421553 2.108202 255 255 255
-1.927344 1.360277 5.465374 255 255 255
4.293549 -1.365559 -1.959922 255 255 255
-2.050493 0.265063 -0.901680 255 255 255
-2.008203 -1.001134 0.289909 255 255 255
7.540936 1.312996 -1.334823 255 255 255
-1.396135 -1.135589 0.685369 255 255 255
2.909127 0.921259 2.647593 255 255 255
8.486775 0.787298 0.675817 255 255 255
0.185203 1.270662 1.442552 255 255 255
-0.809333 -2.134899 3.287361 255 255 255
4.403248 1.045152 -1.926735 255 255 255
1.146436 0.941243 1.646512 255 255 255
2.459879 0.513503 8.441360 255 255 255
1.199575 0.403591 8.358198 255 255 255
7.514558 -2.135963 -0.790434 255 255 255
1.556768 -2.152786 1.515579 255 255 255
3.927154 1.334189 -0.277855 255 255 255
5.049728 -2.137221 -0.705383 255 255 255
2.873061 0.370501 0.616884 255 255 255
5.054387 1.321292 5.623008 255 255 255
0.150395 0.583247 1.171192 255 255 255
8.493780 -0.205031 3.505574 255 255 255
5.895808 -2.043796 -2.322570 255 255 255
0.376152 -2.112274 5.033904 255 255 255
5.607807 -2.125496 5.099730 255 255 255
-1.348564 -1.010520 1.222818 255 255 255
2.124183 -2.160990 7.378254 255 255 255
1.294214 -0.002678 -2.069818 255 255 255
2.869756 -0.109331 3.780982 255 255 255
-1.090350 -0.869932 0.571488 255 255 255
6.828800 -2.052455 -1.812067 255 255 255
3.680398 -1.784805 8.618739 255 255 255
4.241737 -1.782359 -1.528862 255 255 255
9.620925 0.121462 -0.329945 255 255 255
4.499505 -0.160648 -1.669464 255 255 255
5.109169 1.306023 -0.122333 255 255 255
-1.310136 -0.313902 1.104313 255 255 255
5.728172 -0.535800 -1.807366 255 255 255
-1.781388 -1.380726 1.677781 255 255 255
5.648737 1.292794 -1.198702 255 255 255
4.355913 -1.714844 -1.800665 255 255 255
8.225860 -2.077025 8.522455 255 255 255
-0.955941 0.218247 1.175352 255 255 255
2.868893 -1.497810 1.068007 255 255 255
4.361615 -1.754161 -1.853777 255 255 255
8.237231 -0.269196 1.525903 255 255 255
3.992130 -0.026997 8.555067 255 255 255
-1.496665 -1.873942 -1.936917 255 255 255
-1.161186 -0.165897 -1.948350 255 255 255
3.954668 -2.147554 -0.837794 255 255 255
6.871758 -2.007861 -1.806400 255 255 255
1.479975 1.050964 8.492923 255 255 255
0.482191 1.042646 1.196939 255 255 255
6.763181 -1.342857 -2.522530 255 255 255
-0.930543 -1.992285 -2.048622 255 255 255
2.424882 -1.364650 -2.174129 255 255 255
2.149990 -2.118252 1.509276 255 255 255
4.440946 -2.132165 8.020298 255 255 255
7.470436 -0.787958 -2.964917 255 255 255
2.888933 0.247062 4.066358 255 255 255
-0.202614 -1.046860 1.499138 255 255 255
8.465520 -1.357565 -1.826967 255 255 255
-1.942421 -1.402341 -2.070912 255 255 255
-1.465736 1.350491 0.346258 255 255 255
0.496026 0.184226 1.541185 255 255 255
2.834711 -1.170697 3.400215 255 255 255
-2.004377 -1.908178 -2.090185 255 255 255
6.051664 -2.222559 0.136145 255 255 255
5.739189 -2.123285 8.416554 255 255 255
-0.619178 -0.225452 1.273603 255 255 255
2.180636 1.293341 5.815697 255 255 255
0.914381 1.326894 4.220363 255 255 255
1.566201 -2.128536 6.236351 255 255 255
-0.185538 0.448668 8.465787 255 255 255
0.469022 -0.631125 1.161477 255 255 255
1.678948 1.313846 -0.684468 255 255 255
-1.046632 0.555433 1.756770 255 255 255
4.714470 0.042221 8.542977 255 255 255
2.136684 -2.165421 -0.887855 255 255 255
5.636723 1.383154 7.432449 255 255 255
1.550269 1.357205 2.661134 255 255 255
1.581861 -2.145561 -1.984617 255 255 255
2.411222 1.357172 3.144882 255 255 255
8.483471 -0.906889 -0.678439 255 255 255
8.358255 -0.992138 0.464429 255 255 255
3.301232 -2.102286 0.086512 255 255 255
5.040925 -0.364552 1.451229 255 255 255
4.341541 0.977464 -1.777174 255 255 255
1.670351 1.411087 -0.243702 255 255 255
-2.630474 0.593121 1.464292 255 255 255
3.062613 1.549858 0.353519 255 255 255
3.347605 -2.140992 -0.249597 255 255 255
2.879758 -0.239724 1.080542 255 255 255
4.688217 -0.028519 8.548350 255 255 255
3.430498 1.370564 -0.817684 255 255 255
4.318398 -1.749501 8.529715 255 255 255
2.188436 1.340506 7.330879 255 255 255
6.768611 1.307243 1.604526 255 255 255
0.146784 0.221692 1.216022 255 255 255
2.106984 -2.130972 5.077977 255 255 255
3.662004 -1.747364 8.428930 255 255 255
-1.657730 -0.716679 0.313050 255 255 255
1.515871 1.346824 3.819941 255 255 255
5.296439 -2.200872 -0.913523 255 255 255
3.339322 -2.145211 7.383216 255 255 255
6.892741 1.137400 6.326386 255 255 255
-1.935382 -2.049946 0.858652 255 255 255
8.416353 0.213491 5.955511 255 255 255
2.209412 -2.191436 0.909060 255 255 255
0.846662 0.562600 -2.046809 255 255 255
2.443928 -2.540515 -1.740340 255 255 255
6.095239 -2.073938 -1.831118 255 255 255
-1.789410 -1.587642 -1.925552 255 255 255
8.178433 0.450203 -1.796897 255 255 255
8.479117 0.738435 -0.680225 255 255 255
4.029210 -1.422405 -1.569812 255 255 255
2.131762 1.337230 7.946215 255 255 255
0.113331 -1.767148 -2.030460 255 255 255
5.711432 1.402481 0.142564 255 255 255
-1.093641 0.580639 1.657009 255 255 255
7.822649 0.968516 -1.781237 255 255 255
2.854343 0.297553 1.765600 255 255 255
6.789775 -2.124406 5.121890 255 255 255
2.873194 0.145619 3.011356 255 255 255
0.933248 1.342587 2.116817 255 255 255
0.971782 0.521065 -1.979839 255 255 255
0.174264 -0.666740 1.530653 255 255 255
8.438616 -0.153054 -0.277944 255 255 255
4.308602 -0.243146 0.091852 255 255 255
-0.131556 0.007311 -1.862162 255 255 255
2.019522 -1.212313 8.323561 255 255 255
-1.650699 0.133524 0.771088 255 255 255
7.336278 -2.120160 5.653104 255 255 255
0.982840 -1.768887 -2.006638 255 255 255
8.485400 -2.068577 7.427852 255 255 255
-1.967487 -0.933648 3.880586 255 255 255
1.622741 -2.098409 -0.072162 255 255 255
-2.242455 -0.167751 1.952211 255 255 255
8.624469 0.747529 1.342514 255 255 255
8.281667 1.322637 3.508549 255 255 255
0.970088 -2.124712 2.051476 255 255 255
2.894204 -0.623589 0.449276 255 255 255
2.855694 0.737957 3.744439 255 255 255
4.790805 -0.252797 0.099635 255 255 255
2.817339 0.709666 1.346725 255 255 255
2.420864 1.364199 3.285253 255 255 255
-1.267856 -0.177607 0.192593 255 255 255
6.374196 1.260374 2.283566 255 255 255
2.857069 0.173257 4.789760 255 255 255
1.997835 -1.105643 8.352960 255 255 255
3.266265 1.297732 7.332733 255 255 255
-0.297236 -0.693023 -2.011183 255 255 255
8.521894 -0.926747 8.510404 255 255 255
5.029525 -2.109586 5.669286 255 255 255
0.121691 0.982221 1.178059 255 255 255
-1.967413 0.993880 -2.078683 255 255 255
2.851207 -1.843469 2.724592 255 255 255
5.387258 1.319047 -1.892485 255 255 255
-0.860617 0.413049 -2.025547 255 255 255
2.182338 -0.614881 8.612135 255 255 255
5.229906 1.324556 0.471070 255 255 255
2.855013 0.065446 0.918753 255 255 255
5.600124 -2.047714 5.040552 255 255 255
7.324716 -2.113420 1.006317 255 255 255
2.952012 0.068622 0.960790 255 255 255
1.568003 1.409318 2.543236 255 255 255
7.048752 -2.197263 8.557617 255 255 255
4.541471 1.502428 -0.826896 255 255 255
4.612983 0.402451 -1.956786 255 255 255
0.503040 -1.215299 -2.048782 255 255 255
2.622689 -1.174418 8.512474 255 255 255
8.462352 -0.946420 0.759968 255 255 255
2.149161 1.350556 0.892493 255 255 255
-0.796923 -2.118545 5.041571 255 255 255
2.870187 -1.528082 1.542095 255 255 255
3.329490 1.171707 -0.821103 255 255 255
8.501408 -0.351831 1.060190 255 255 255
2.869736 0.057493 0.912069 255 255 255
-0.264320 -1.827739 8.474148 255 255 255
3.989997 -2.157084 -0.815004 255 255 255
1.583585 -2.146955 -1.994035 255 255 255
4.238581 -1.821764 8.911822 255 255 255
3.575103 1.056985 8.244238 255 255 255
2.702940 -2.164577 0.367523 255 255 255
4.679200 0.398418 0.117699 255 255 255
-0.232434 1.262245 -2.066803 255 255 255
3.254218 -2.393987 0.517944 255 255 255
-1.942751 0.764179 3.265692 255 255 255
5.579174 -2.153105 -0.118086 255 255 255
8.501575 -0.395895 1.606711 255 255 255
2.840522 0.171537 2.958361 255 255 255
-1.540282 -0.377935 0.741637 255 255 255
4.203953 -1.671810 5.705801 255 255 255
5.483779 0.419419 -2.050667 255 255 255
8.460650 -1.472395 0.678595 255 255 255
6.184075 -2.099814 0.447549 255 255 255
-1.214772 -0.487910 -1.965737 255 255 255
6.821040 -2.161655 -0.137456 255 255 255
-1.969718 -0.112082 0.355617 255 255 255
2.931605 1.013164 6.054581 255 255 255
7.907998 -2.081765 -0.673603 255 255 255
-0.597931 0.574409 1.184469 255 255 255
4.643301 -1.928019 8.591355 255 255 255
-1.296213 1.378474 1.208513 255 255 255
8.500563 -0.400395 5.099544 255 255 255
1.531525 1.386233 2.165009 255 255 255
5.717607 0.938096 8.438347 255 255 255
4.367963 -0.051999 -1.895822 255 255 255
1.674101 -0.644923 8.492418 255 255 255
-0.895596 0.401594 -1.990873 255 255 255
8.495122 -0.922489 1.604144 255 255 255
2.929292 -0.847841 2.090793 255 255 255
2.848774 -0.732134 0.852311 255 255 255
8.475268 0.715667 2.906308 255 255 255
7.160713 0.558353 -1.855572 255 255 255
5.121609 -0.590128 -2.039593 255 255 255
-0.940821 0.002856 -2.025508 255 255 255
8.481524 1.237171 -0.703512 255 255 255
1.548213 -2.120032 2.684033 255 255 255
8.454941 1.295516 0.850763 255 255 255
3.314021 -0.630833 8.288454 255 255 255
2.816963 0.346444 2.969890 255 255 255
-0.212235 1.034693 1.195400 255 255 255
-1.961844 -0.867817 -0.788494 255 255 255
-0.074968 0.010545 -1.889084 255 255 255
-1.731829 1.379372 0.610278 255 255 255
0.969873 1.344923 3.926938 255 255 255
5.109740 -0.563373 4.795615 255 255 255
2.854876 -1.840381 3.967879 255 255 255
3.385394 1.324781 -0.662010 255 255 255
-0.873254 1.233920 -1.993984 255 255 255
5.765448 0.967523 -1.842509 255 255 255
-0.212847 1.083766 1.210923 255 255 255
-1.871984 -0.189757 6.232594 255 255 255
3.995054 -1.949234 -1.976200 255 255 255
7.884284 -2.143689 5.750165 255 255 255
0.487540 1.003949 1.189035 255 255 255
8.312521 0.233106 0.396745 255 255 255
-1.490067 -1.395695 0.405745 255 255 255
1.568654 1.323798 -0.722544 255 255 255
8.493028 1.067699 1.888847 255 255 255
3.389258 -2.160432 -0.827433 255 255 255
8.396967 1.371555 3.111705 255 255 255
-1.977573 0.244974 3.288380 255 255 255
4.624139 -0.031974 -1.948933 255 255 255
8.505776 0.254092 8.445772 255 255 255
3.971404 1.366156 -0.299484 255 255 255
-1.974479 -0.996444 2.717669 255 255 255
7.320468 1.302819 -0.817373 255 255 255
8.472174 -2.088011 5.654950 255 255 255
2.863867 -2.157922 0.365059 255 255 255
5.258319 1.317355 1.540557 255 255 255
-0.574703 -0.195933 -2.071171 255 255 255
2.860550 0.190554 4.774559 255 255 255
6.158104 -2.143998 -0.147765 255 255 255
4.509924 1.105906 -1.950871 255 255 255
2.884568 -0.516957 1.464993 255 255 255
-1.499629 -1.579747 1.183674 255 255 255
7.953656 -1.827381 -1.879117 255 255 255
0.871505 -1.376370 8.563603 255 255 255
-1.267346 -0.610160 -1.897427 255 255 255
8.213985 -2.413436 1.306266 255 255 255
7.963741 1.323503 -1.790925 255 255 255
2.846349 -2.137108 0.898215 255 255 255
3.332628 1.359323 -0.065858 255 255 255
3.293298 -2.127640 8.010424 255 255 255
-0.160070 -1.899579 8.542847 255 255 255
-1.984088 -1.521089 -0.881602 255 255 255
8.481167 0.479183 8.653915 255 255 255
6.302574 1.279081 2.917003 255 255 255
-0.219599 -2.230237 2.241894 255 255 255
5.540139 -1.963983 -2.128042 255 255 255
3.607228 -0.657829 8.222084 255 255 255
-1.909845 -2.077775 0.837177 255 255 255
-1.930901 1.294668 -1.822173 255 255 255
-0.997118 1.274085 8.089712 255 255 255
0.390521 -2.077622 3.996037 255 255 255
2.599934 1.277062 6.078971 255 255 255
3.885198 1.363961 6.199362 255 255 255
2.061513 -2.112264 8.007494 255 255 255
8.292960 -1.651085 -1.267704 255 255 255
1.969777 -0.548692 8.268828 255 255 255
7.317921 -2.103196 0.517898 255 255 255
2.206565 -2.120341 -0.659412 255 255 255
-1.276962 -0.674932 1.208628 255 255 255
5.022770 -0.353697 0.875513 255 255 255
3.984876 1.356489 6.266037 255 255 255
4.739759 1.425673 -1.519829 255 255 255
0.389165 -2.147311 2.105695 255 255 255
-1.966036 -1.225438 4.462839 255 255 255
-0.246170 -1.860640 8.480548 255 255 255
2.149826 -2.141754 0.899449 255 255 255
2.860175 1.353678 0.330402 255 255 255
2.154854 -2.124834 0.310769 255 255 255
8.516285 -0.359302 6.795116 255 255 255
1.530063 1.357649 3.331132 255 255 255
2.380152 -0.076722 -1.922301 255 255 255
8.640606 0.236950 1.336889 255 255 255
8.430928 -0.674522 4.577807 255 255 255
5.973114 -2.200203 -0.741639 255 255 255
2.837676 -0.137864 3.558246 255 255 255
2.783447 -2.100463 5.105762 255 255 255
6.255375 1.205112 -2.080296 255 255 255
2.869498 -0.459120 0.331566 255 255 255
5.100557 -1.647877 -1.803131 255 255 255
8.226019 -0.776288 -1.896419 255 255 255
2.801127 -1.801821 0.217303 255 255 255
-2.018048 1.151130 -2.103235 255 255 255
0.130098 -1.010938 1.523548 255 255 255
8.509271 -0.404753 -0.064513 255 255 255
1.537320 -2.175647 2.101332 255 255 255
-2.044728 0.882959 -0.244282 255 255 255
2.096045 -1.161213 8.394361 255 255 255
-1.273437 1.142666 0.381607 255 255 255
-1.691859 -0.016894 8.629408 255 255 255
2.878838 -0.950832 0.795043 255 255 255
4.631113 1.361000 -1.991561 255 255 255
5.095061 0.891302 2.716519 255 255 255
3.279217 0.380667 -1.971669 255 255 255
6.758950 0.378581 -1.810151 255 255 255
1.220873 -1.120719 8.548635 255 255 255
0.541012 -1.900113 8.555540 255 255 255
5.640947 -2.116280 7.366836 255 255 255
-0.230650 -0.658314 1.189684 255 255 255
7.898481 -2.139783 6.212921 255 255 255
2.979283 -1.321033 -2.016862 255 255 255
6.751235 -2.077510 -0.205097 255 255 255
3.183095 1.387902 1.712351 255 255 255
1.532286 -2.146877 3.925047 255 255 255
1.599101 -2.193326 7.967151 255 255 255
1.978382 1.199521 0.282183 255 255 255
-0.989360 0.533896 1.812452 255 255 255
1.184909 -2.119053 8.572943 255 255 255
7.067115 0.586666 -1.772735 255 255 255
5.053402 1.300523 3.635100 255 255 255
0.118883 1.027755 -2.020700 255 255 255
2.821940 -0.677148 5.469200 255 255 255
-0.934825 -0.190128 1.207794 255 255 255
-1.777418 -0.870830 -0.234942 255 255 255
2.841607 -2.320534 5.565572 255 255 255
2.274377 -0.472993 -2.036592 255 255 255
1.229077 -0.759400 8.551264 255 255 255
0.136754 -0.618038 8.440322 255 255 255
5.227773 1.370089 -0.822781 255 255 255
3.346493 0.392531 -0.998319 255 255 255
4.299893 -2.210278 7.398576 255 255 255
0.119233 -0.592776 -2.044393 255 255 255
-0.252870 1.134120 8.479832 255 255 255
5.655265 -2.046878 1.553004 255 255 255
0.108718 0.587263 -2.048849 255 255 255
3.327902 -1.213547 8.803757 255 255 255
-1.607509 0.480695 0.326898 255 255 255
7.181760 1.319524 4.189297 255 255 255
-0.312371 -2.289443 2.196655 255 255 255
-1.441931 -0.528506 0.700546 255 255 255
2.849026 -1.623101 3.483467 255 255 255
0.129673 -0.589166 -2.022803 255 255 255
0.104432 0.601687 -2.079359 255 255 255
5.526506 -1.999295 8.672562 255 255 255
2.212335 -2.097546 -1.244961 255 255 255
-1.278431 0.476922 -1.890946 255 255 255
-1.944779 -0.381273 4.997236 255 255 255
-1.357167 -2.142664 2.109952 255 255 255
4.737082 0.405013 8.595037 255 255 255
0.227708 1.368917 0.612608 255 255 255
8.460901 -0.476637 5.749568 255 255 255
-1.885722 -1.151893 5.831653 255 255 255
5.061163 -1.314553 -1.789653 255 255 255
6.414647 0.620552 -1.857639 255 255 255
1.787926 -0.704505 -2.018337 255 255 255
2.880142 0.640659 4.595966 255 255 255
4.765775 1.307958 8.562252 255 255 255
9.339346 -0.357808 -1.532883 255 255 255
5.405856 -1.104566 8.546453 255 255 255
-2.343313 -0.831832 0.397591 255 255 255
5.054986 1.280839 5.276551 255 255 255
-1.960263 1.320847 -0.854599 255 255 255
5.649547 1.307391 7.920393 255 255 255
3.427053 -0.719989 -2.039608 255 255 255
5.082074 0.581363 -2.042987 255 255 255
4.327714 0.963723 -1.783247 255 255 255
2.870492 -0.002532 0.544134 255 255 255
0.542247 1.279205 -1.972941 255 255 255
2.138086 1.296163 1.534833 255 255 255
3.037433 -0.187178 8.692455 255 255 255
1.539576 -2.219705 5.319829 255 255 255
8.463377 0.684861 8.020971 255 255 255
2.819929 -0.080073 3.545572 255 255 255
5.273296 1.316791 1.577732 255 255 255
2.842892 -1.995699 1.494232 255 255 255
-1.011111 0.340699 -1.503556 255 255 255
2.690743 -2.166134 5.596640 255 255 255
5.046017 1.305533 2.197054 255 255 255
2.716636 -2.176848 7.035345 255 255 255
2.857981 -0.324138 0.545009 255 255 255
0.944782 1.342674 3.883481 255 255 255
8.483064 1.269090 -0.101160 255 255 255
2.695776 -1.991909 -1.339725 255 255 255
2.024438 -0.002455 -1.808038 255 255 255
2.841268 -1.763047 8.541376 255 255 255
8.491393 1.206173 -0.777396 255 255 255
3.904926 1.336285 0.119839 255 255 255
1.573983 -2.114314 0.477176 255 255 255
2.707603 -1.830845 8.453799 255 255 255
-1.986963 -0.556917 -2.086965 255 255 255
2.847673 0.731205 3.758273 255 255 255
2.786386 -2.111644 5.090490 255 255 255
0.605243 -1.142771 -1.828253 255 255 255
0.396059 1.388437 3.173317 255 255 255
7.340072 1.335508 6.852163 255 255 255
3.270849 -0.589620 8.363019 255 255 255
-1.791721 0.944229 0.882879 255 255 255
0.941593 -2.085212 2.697667 255 255 255
-1.784808 1.255780 0.231888 255 255 255
2.427755 1.366519 3.267930 255 255 255
8.485662 -1.847750 -0.487687 255 255 255
1.523293 -2.113704 3.274665 255 255 255
-1.564594 -2.260808 4.297753 255 255 255
2.829096 -2.129100 5.087266 255 255 255
1.923615 0.403515 -1.985784 255 255 255
5.106179 0.998091 -2.028562 255 255 255
1.576621 -1.680709 8.549000 255 255 255
4.067103 -2.004671 -2.060982 255 255 255
0.942104 1.349199 3.096509 255 255 255
2.668216 -2.108689 1.504353 255 255 255
-0.238405 0.001486 8.369141 255 255 255
-2.001711 -1.608926 -0.826737 255 255 255
-0.774266 -2.146063 1.524351 255 255 255
2.974640 -1.760445 -2.028327 255 255 255
8.493581 -1.630149 5.110943 255 255 255
8.841851 -1.848057 -1.319809 255 255 255
-2.003906 -2.051278 8.070370 255 255 255
3.774859 -2.152860 6.806184 255 255 255
1.560625 1.353070 0.887791 255 255 255
-1.887381 -1.547418 1.403018 255 255 255
5.797386 -0.522548 -1.804697 255 255 255
2.636465 1.355144 -2.052234 255 255 255
-1.898342 -0.413710 0.422342 255 255 255
-2.004429 -1.241863 1.621108 255 255 255
0.475861 0.471793 -2.078539 255 255 255
8.925702 -0.914504 -0.992179 255 255 255
1.540725 -2.105929 7.394217 255 255 255
2.834365 -0.716416 0.372076 255 255 255
5.130467 0.559388 2.156931 255 255 255
-2.096060 -2.213791 0.930860 255 255 255
0.141679 1.259162 1.163015 255 255 255
0.204383 -0.151664 -1.878463 255 255 255
3.335869 0.400329 -2.033614 255 255 255
7.937349 1.293600 1.580447 255 255 255
-1.450847 0.368451 0.718702 255 255 255
7.824717 1.428126 8.716261 255 255 255
2.282686 -1.361885 8.546846 255 255 255
-2.347955 -2.349502 0.379360 255 255 255
0.848620 1.342612 1.540517 255 255 255
4.382181 -0.550262 8.576324 255 255 255
0.495976 -0.643335 1.194406 255 255 255
1.527637 -2.182404 2.761254 255 255 255
1.535069 1.351385 5.041510 255 255 255
1.540181 -0.587362 8.482700 255 255 255
3.263376 1.260117 1.402872 255 255 255
2.501127 1.376751 3.263308 255 255 255
3.262511 -1.967662 7.592387 255 255 255
2.646574 0.044817 -1.837672 255 255 255
-1.920634 -2.119641 5.053574 255 255 255
2.537558 -1.139329 8.409945 255 255 255
2.801337 -1.657673 0.218153 255 255 255
0.508984 1.360746 -2.052733 255 255 255
1.849710 0.001789 -2.021642 255 255 255
-1.093040 1.225061 3.014697 255 255 255
-0.196648 -0.643489 1.531653 255 255 255
0.417232 -2.146024 3.791666 255 255 255
0.118395 -1.348635 -2.049567 255 255 255
2.656013 -2.165541 -2.092536 255 255 255
1.970857 -1.114532 8.472443 255 255 255
-1.976614 -1.576272 2.711957 255 255 255
1.904100 -0.041424 8.624429 255 255 255
3.602482 -0.185788 -1.974412 255 255 255
0.529727 -0.756942 8.557933 255 255 255
-0.789647 0.588565 8.104061 255 255 255
2.853223 -1.353872 4.769856 255 255 255
-0.670367 1.360249 5.064767 255 255 255
1.525296 1.373139 3.384143 255 255 255
8.505910 -0.927421 6.789697 255 255 255
5.703044 1.267394 0.493211 255 255 255
2.900190 0.601698 2.246673 255 255 255
-1.988561 -1.549782 -0.685597 255 255 255
1.529468 1.353213 3.811434 255 255 255
8.489144 0.178350 3.901130 255 255 255
5.289941 -1.836667 -1.916941 255 255 255
-1.936171 0.256936 4.438640 255 255 255
6.809877 -2.121373 0.287620 255 255 255
-1.908510 0.416698 0.857151 255 255 255
5.588317 1.301154 1.599712 255 255 255
-1.337696 -2.052770 1.465316 255 255 255
3.252596 -0.152048 0.567448 255 255 255
2.872881 -0.591434 0.438923 255 255 255
4.737084 1.193005 8.613523 255 255 255
8.443362 0.901319 2.100064 255 255 255
8.511223 -1.315050 3.829206 255 255 255
-1.418789 -0.374139 0.438162 255 255 255
8.516883 1.008251 8.689942 255 255 255
5.074448 -0.376297 4.793229 255 255 255
5.559357 0.429460 -2.077463 255 255 255
2.103898 -2.116760 7.946648 255 255 255
7.415315 -2.124891 1.057987 255 255 255
5.729028 -0.195025 -1.815211 255 255 255
1.571701 1.364742 1.519207 255 255 255
5.185181 -0.342077 3.073033 255 255 255
0.861740 1.055611 1.580131 255 255 255
8.516242 0.222722 1.621254 255 255 255
2.876001 -0.066603 3.669570 255 255 255
2.631641 1.273319 0.904734 255 255 255
-1.106124 0.655529 1.142064 255 255 255
2.499698 0.408125 8.203459 255 255 255
2.147938 1.347885 5.648370 255 255 255
1.613540 1.202354 4.781695 255 255 255
0.270623 0.978547 -1.821130 255 255 255
7.425036 0.089965 -0.246262 255 255 255
7.462746 1.401520 -0.917911 255 255 255
6.075252 0.032751 -1.822609 255 255 255
-0.914778 -0.190634 1.212211 255 255 255
3.433580 0.003153 -1.760206 255 255 255
4.476516 1.372896 -0.836073 255 255 255
-1.966064 0.185936 2.638591 255 255 255
7.903626 1.294590 -0.620098 255 255 255
2.669269 -2.154517 7.060107 255 255 255
5.648235 -2.039349 1.069472 255 255 255
0.150634 1.068232 1.203642 255 255 255
5.057120 -2.085466 -1.355785 255 255 255
5.724658 -1.350567 -1.819573 255 255 255
-0.213003 1.348435 1.178904 255 255 255
0.984596 1.063360 -2.001655 255 255 255
8.550211 -1.447986 2.729393 255 255 255
2.785922 1.347242 5.665896 255 255 255
1.632539 -0.549596 8.436594 255 255 255
0.876458 -1.734440 -2.052319 255 255 255
-1.963287 0.834470 3.873625 255 255 255
-2.106960 0.901606 2.507658 255 255 255
3.560640 -0.709158 8.676913 255 255 255
4.979955 -1.302008 -1.988831 255 255 255
7.962529 -2.121789 1.571211 255 255 255
1.891293 -0.784391 -2.043835 255 255 255
6.060605 1.126938 8.427602 255 255 255
0.117625 0.577405 1.179503 255 255 255
3.344067 -0.630752 8.338907 255 255 255
9.695839 1.447731 -1.556455 255 255 255
5.121215 -0.560381 3.661560 255 255 255
0.497310 0.465672 -2.041038 255 255 255
7.311484 1.424496 -0.840252 255 255 255
1.605832 1.363907 6.201134 255 255 255
8.477479 -1.109569 2.948170 255 255 255
7.738031 1.502039 -0.852802 255 255 255
6.302331 1.412709 1.483235 255 255 255
0.526536 0.352382 -1.917478 255 255 255
-1.953635 -1.514544 0.926939 255 255 255
5.130119 0.877705 2.717828 255 255 255
0.958358 -2.150914 2.665659 255 255 255
-1.755597 -2.021685 -1.789231 255 255 255
1.161714 -0.772521 -2.090626 255 255 255
6.057606 1.326706 7.351450 255 255 255
-1.792940 -0.787071 -2.268136 255 255 255
-1.699868 -0.588500 0.755750 255 255 255
1.999525 -0.645935 8.318901 255 255 255
4.062420 -0.770881 -1.845048 255 255 255
0.521984 0.380860 -2.032022 255 255 255
0.695427 1.378897 1.199911 255 255 255
2.821598 1.355538 4.240261 255 255 255
-0.996761 0.012023 -2.147596 255 255 255
2.863472 1.359143 1.492665 255 255 255
0.122601 1.361674 7.533779 255 255 255
2.839330 -2.068790 0.718026 255 255 255
2.138322 -2.156162 0.974281 255 255 255
4.063214 1.132874 8.445351 255 255 255
-1.919766 -1.500839 0.928173 255 255 255
5.644562 -2.065599 -1.216452 255 255 255
2.850513 -0.893781 0.450294 255 255 255
0.616480 1.307784 1.285836 255 255 255
3.243185 -1.133326 8.356075 255 255 255
2.856064 -1.353487 4.787108 255 255 255
0.571549 -0.575416 1.271348 255 255 255
4.322084 -1.706284 -1.892705 255 255 255
2.896027 0.468680 1.652824 255 255 255
-0.062829 1.277094 1.277457 255 255 255
1.884919 0.004324 -2.105369 255 255 255
2.234545 -1.776085 0.373152 255 255 255
2.661407 -1.838582 8.396771 255 255 255
-0.994115 -2.168969 -2.114030 255 255 255
0.973083 -2.174381 2.136955 255 255 255
3.227633 -2.020957 0.084778 255 255 255
5.603413 1.308955 1.580546 255 255 255
2.161639 1.392075 5.589876 255 255 255
-0.560914 -0.809124 -2.337057 255 255 255
0.462649 -1.936600 8.448266 255 255 255
2.817018 1.331318 2.838581 255 255 255
0.474082 -2.065704 8.564494 255 255 255
3.908604 1.391781 -0.929663 255 255 255
1.587761 1.364158 -0.082203 255 255 255
2.038133 -0.610270 8.275433 255 255 255
-1.796770 -2.038086 1.425718 255 255 255
2.486683 0.421644 8.272831 255 255 255
6.217208 1.298128 5.087914 255 255 255
-1.696351 -2.013377 -2.163630 255 255 255
2.855209 -0.211300 2.727212 255 255 255
5.018167 -0.359438 3.667709 255 255 255
-1.280982 -1.261009 0.371414 255 255 255
8.333431 0.640631 -2.038955 255 255 255
2.874852 -0.062911 1.133554 255 255 255
7.344112 1.327968 -1.212155 255 255 255
8.446460 -1.379419 2.640241 255 255 255
1.193494 1.244112 -2.040521 255 255 255
2.389606 0.523083 -1.953510 255 255 255
2.629341 1.282745 6.059004 255 255 255
2.855410 -0.932081 1.601342 255 255 255
0.523552 1.315322 -1.964010 255 255 255
2.967941 -0.604317 -2.012700 255 255 255
0.506803 -0.239949 1.194442 255 255 255
-0.944584 -0.814837 1.109042 255 255 255
0.638168 -1.877540 -1.849085 255 255 255
8.441137 1.260591 -0.868590 255 255 255
0.144022 0.638315 1.197538 255 255 255
2.841559 0.357557 1.282221 255 255 255
6.075324 -1.928625 -1.827328 255 255 255
4.321639 -1.703908 -1.882775 255 255 255
0.360028 -2.153360 1.517440 255 255 255
3.216821 -2.077800 -1.433424 255 255 255
0.965714 1.366875 3.229049 255 255 255
-1.965244 -1.516354 0.942222 255 255 255
-1.495241 -1.394653 0.401623 255 255 255
2.507860 1.375766 3.243402 255 255 255
8.253253 0.425497 -1.841788 255 255 255
5.626777 0.008457 -2.139600 255 255 255
8.515451 1.292621 -0.112507 255 255 255
0.955902 -1.787775 -2.005217 255 255 255
-0.191089 0.222283 1.194785 255 255 255
1.264723 0.420213 -2.047022 255 255 255
5.638399 1.245755 -2.145086 255 255 255
0.417633 -2.123518 3.303555 255 255 255
0.942055 1.339431 4.291090 255 255 255
3.328805 -2.172702 -0.878852 255 255 255
0.161683 1.312030 1.157674 255 255 255
0.110185 0.570332 1.173172 255 255 255
4.075698 0.406469 -1.839108 255 255 255
0.954290 1.366623 3.217200 255 255 255
0.120043 0.165385 1.165120 255 255 255
6.067001 -1.434750 -2.173705 255 255 255
-1.163621 0.075016 1.140826 255 255 255
5.938480 1.281685 2.892210 255 255 255
-2.006005 1.369668 -0.852063 255 255 255
2.974462 -1.315648 -2.018210 255 255 255
2.846877 0.358156 1.279238 255 255 255
0.135039 0.640152 1.202636 255 255 255
2.358939 -1.764866 -1.991730 255 255 255
2.979479 0.433476 -1.705423 255 255 255
5.469495 -1.160993 -2.038330 255 255 255
0.574810 -0.010198 -1.848655 255 255 255
6.381009 -2.031115 -2.180212 255 255 255
-2.004220 -0.722325 0.541507 255 255 255
3.710662 -0.509557 -2.061666 255 255 255
2.649928 -2.140141 -2.077162 255 255 255
-1.584081 -0.353568 0.463807 255 255 255
3.933479 -2.141810 -0.837933 255 255 255
5.437806 -1.965617 8.617271 255 255 255
3.013898 -1.290400 -1.828053 255 255 255
0.339462 1.334185 3.737716 255 255 255
5.039716 -1.347904 -1.822606 255 255 255
0.441930 -2.109663 3.336379 255 255 255
2.888220 0.363920 3.082316 255 255 255
0.120575 0.566858 1.166843 255 255 255
2.865224 0.591518 3.233208 255 255 255
4.413942 -0.633704 -1.922412 255 255 255
0.602527 0.417247 -1.832009 255 255 255
3.355437 -2.159466 -0.264231 255 255 255
8.567610 1.341450 5.168279 255 255 255
1.539748 1.398214 3.385661 255 255 255
6.491612 1.002003 -2.014931 255 255 255
5.585409 -2.227574 6.926878 255 255 255
2.875600 0.364493 0.617144 255 255 255
8.743754 0.104183 -0.807766 255 255 255
1.534091 -2.087004 3.216468 255 255 255
1.605609 1.204438 4.775502 255 255 255
-1.601717 1.186887 -2.026258 255 255 255
8.533599 -1.441700 2.718454 255 255 255
6.196030 -1.198629 -2.018373 255 255 255
4.407586 0.509241 -1.922144 255 255 255
8.406692 0.593303 -2.166622 255 255 255
6.415744 -1.666224 -1.804041 255 255 255
1.578226 -2.035914 6.206351 255 255 255
-2.024468 1.366911 -2.055375 255 255 255
2.276611 -0.196292 -2.026387 255 255 255
2.784087 -0.701033 8.642567 255 255 255
4.009897 -2.177229 -1.411794 255 255 255
0.367974 -2.083815 4.874230 255 255 255
8.487774 -0.451864 1.865299 255 255 255
2.002059 1.406725 2.014632 255 255 255
8.348940 -0.757010 3.346938 255 255 255
2.574835 0.410570 8.477193 255 255 255
-0.279267 -2.178075 -2.153011 255 255 255
-0.244870 1.134121 8.474420 255 255 255
5.636554 -2.067378 0.443020 255 255 255
-0.249806 0.433228 -2.147506 255 255 255
4.073911 1.275210 -1.256397 255 255 255
5.792376 0.495134 -1.660288 255 255 255
4.135584 -1.861330 -1.708895 255 255 255
3.846370 1.351744 -1.408652 255 255 255
1.245537 0.427479 -2.116739 255 255 255
8.509798 -0.458391 8.512957 255 255 255
-1.933762 0.971843 0.966089 255 255 255
8.467787 0.095264 -0.110677 255 255 255
4.024266 -2.081862 6.820564 255 255 255
0.994259 1.407179 1.616224 255 255 255
2.846104 1.117307 1.654403 255 255 255
2.134581 -2.146001 0.924681 255 255 255
2.862416 -0.945394 0.797824 255 255 255
5.045210 -1.341031 -1.818066 255 255 255
2.876499 -1.422348 0.823639 255 255 255
1.235443 -1.054956 -1.979909 255 255 255
1.979040 1.339653 3.715170 255 255 255
-0.832401 1.201115 -1.952536 255 255 255
2.867329 -0.956318 0.784623 255 255 255
-1.689929 -0.388485 0.516220 255 255 255
-0.181642 -2.111561 5.011110 255 255 255
4.937105 0.973117 5.134521 255 255 255
8.941476 -0.797828 2.271616 255 255 255
7.449087 -0.699546 -1.800864 255 255 255
0.162885 -0.191511 1.193884 255 255 255
2.859177 -1.829057 3.974346 255 255 255
0.360241 -2.144244 1.518999 255 255 255
3.234833 -0.059422 1.013644 255 255 255
0.217531 1.379565 0.610628 255 255 255
0.621183 1.283950 1.267058 255 255 255
0.108932 0.161963 1.177105 255 255 255
0.451685 1.308203 3.705874 255 255 255
-1.663831 1.334241 0.600942 255 255 255
0.802158 0.221273 1.292409 255 255 255
2.791721 -2.174488 0.902651 255 255 255
5.058231 -2.065898 -1.770186 255 255 255
0.257003 -2.202403 4.992447 255 255 255
2.871088 0.000177 2.921810 255 255 255
2.870157 -1.862790 0.099189 255 255 255
-1.744515 0.389762 0.508288 255 255 255
0.963682 -2.139246 3.295481 255 255 255
5.428271 0.006194 -1.811503 255 255 255
2.732909 -2.161824 1.501126 255 255 255
2.867239 1.273966 3.604561 255 255 255
1.146132 -0.808766 -2.191401 255 255 255
-1.653882 0.357440 0.503423 255 255 255
7.360878 -2.055920 -0.108840 255 255 255
3.054504 -0.171991 -2.056732 255 255 255
8.680745 -0.971977 1.702852 255 255 255
2.996912 1.029448 -2.041276 255 255 255
-1.976124 -1.081393 5.740226 255 255 255
0.165209 -0.535089 8.554039 255 255 255
1.222186 -1.099579 -2.073308 255 255 255
4.699677 -1.098043 -1.810953 255 255 255
-0.260959 -0.752116 8.590399 255 255 255
5.144768 -2.140925 -1.406297 255 255 255
2.063837 1.269808 6.049205 255 255 255
-0.233581 -1.879799 8.458581 255 255 255
0.842400 -0.234310 1.231254 255 255 255
-0.241974 -0.760418 8.543352 255 255 255
-0.243417 -1.146740 8.541324 255 255 255
-1.423455 -0.273730 1.204570 255 255 255
1.577483 -0.553523 7.976789 255 255 255
-0.238096 -1.138275 8.525896 255 255 255
0.480105 1.114674 8.570610 255 255 255
0.170521 -0.180922 -2.003314 255 255 255
1.183120 -2.078961 8.557522 255 255 255
-1.332243 -0.525686 0.669978 255 255 255
0.839801 0.212940 1.242480 255 255 255
3.987373 0.007494 -1.965733 255 255 255
4.995572 -1.769707 8.654140 255 255 255
-1.915413 -1.180126 0.926854 255 255 255
-1.805055 1.308088 -1.310943 255 255 255
2.794467 -2.184576 0.905865 255 255 255
6.086070 -2.093077 -1.878163 255 255 255
-0.749383 -2.171724 1.571529 255 255 255
7.384929 1.333773 -0.662688 255 255 255
7.870325 -2.078816 0.450900 255 255 255
-1.268290 -0.893017 1.144817 255 255 255
1.634530 -2.083049 0.465831 255 255 255
2.420005 -1.289214 -2.030132 255 255 255
0.119054 0.951598 1.165640 255 255 255
-1.564610 0.273163 0.895601 255 255 255
6.404708 -0.205536 -1.833329 255 255 255
2.463900 1.349162 4.179791 255 255 255
1.490609 -2.278029 3.428351 255 255 255
6.795744 1.330255 0.505456 255 255 255
8.505976 -0.496234 2.479409 255 255 255
0.514165 -2.063411 -2.002464 255 255 255
2.851496 0.308843 1.978208 255 255 255
6.092455 -2.061320 -1.813922 255 255 255
8.458563 -0.054072 0.496055 255 255 255
-1.634020 0.481947 -2.145003 255 255 255
0.850672 0.218025 1.229140 255 255 255
2.100732 -2.148036 5.141588 255 255 255
2.855774 0.005675 2.921379 255 255 255
-0.664899 1.353218 5.062121 255 255 255
7.379470 -2.092232 -1.220960 255 255 255
0.054927 -0.620660 -2.153443 255 255 255
2.844257 -0.189524 0.336983 255 255 255
2.179908 1.332316 6.011944 255 255 255
0.429937 -1.981475 4.710464 255 255 255
-2.033170 1.360551 -2.060089 255 255 255
-1.853598 -1.303422 -1.861824 255 255 255
0.532904 1.245824 3.788997 255 255 255
0.487393 -1.897041 8.287418 255 255 255
8.506131 0.457033 5.064817 255 255 255
2.380655 -1.796351 -2.007908 255 255 255
5.658774 -2.152110 1.053389 255 255 255
2.410313 -1.706770 -1.810551 255 255 255
2.886679 0.028888 0.468056 255 255 255
5.727856 -1.636791 -1.789696 255 255 255
0.378367 -2.093787 3.202920 255 255 255
1.851777 -1.949497 8.575132 255 255 255
4.417005 -0.095748 -1.939428 255 255 255
1.547400 -2.140223 1.522817 255 255 255
2.875087 -0.632121 0.563208 255 255 255
2.499124 1.399203 3.331077 255 255 255
-1.908236 -0.419144 -0.312189 255 255 255
0.950393 1.342032 3.877606 255 255 255
0.178231 1.337363 7.496141 255 255 255
5.078512 -2.133412 -1.286890 255 255 255
2.845514 -1.218972 0.554536 255 255 255
-0.657287 1.373220 6.357208 255 255 255
2.188869 -2.096426 1.006869 255 255 255
3.703968 -0.484268 -1.831283 255 255 255
3.366281 -1.100494 -2.083427 255 255 255
0.484393 -2.014184 2.622673 255 255 255
1.535043 1.342414 2.643039 255 255 255
-1.289126 -0.248457 1.222154 255 255 255
-1.957736 1.387074 5.202556 255 255 255
-1.909429 -0.289995 0.927704 255 255 255
0.836833 -0.607591 1.285714 255 255 255
-0.924080 -2.154149 4.972683 255 255 255
-0.734704 -2.031921 -1.843943 255 255 255
2.517753 1.370033 0.921204 255 255 255
8.497081 0.116956 -0.291399 255 255 255
0.464059 0.594539 1.184873 255 255 255
3.067823 -0.575080 -1.858724 255 255 255
2.866076 -2.115532 0.714765 255 255 255
3.346098 1.281412 -1.839425 255 255 255
6.841058 -1.925408 -1.997159 255 255 255
7.531869 1.362246 0.481988 255 255 255
0.854247 -0.187731 1.261791 255 255 255
6.193058 -2.096446 -0.074310 255 255 255
2.845604 0.534997 1.030457 255 255 255
2.819519 -1.621571 2.734325 255 255 255
-1.665213 1.245039 8.633877 255 255 255
-1.959734 1.351007 0.941349 255 255 255
2.010609 -0.669077 8.513962 255 255 255
4.585711 -0.013150 -1.794066 255 255 255
2.698634 0.949065 5.702398 255 255 255
5.038889 0.996215 8.547839 255 255 255
0.931412 -2.123618 3.321155 255 255 255
2.864727 -0.561157 1.902880 255 255 255
2.733637 -2.173615 -1.446643 255 255 255
1.642411 -2.073559 0.994178 255 255 255
3.784892 -0.140039 -5.012250 255 255 255
1.650857 1.391330 6.803267 255 255 255
5.579882 1.239206 -2.122015 255 255 255
3.377359 -1.102296 -2.095047 255 255 255
5.651820 -0.822525 -2.176143 255 255 255
8.259194 0.528325 7.622374 255 255 255
2.868752 0.973970 2.087632 255 255 255
5.255710 1.292848 0.463651 255 255 255
2.882348 0.027673 0.476444 255 255 255
2.711413 -2.123330 0.328838 255 255 255
-0.170537 1.220893 -1.991256 255 255 255
0.860284 -0.606048 1.256679 255 255 255
2.185222 1.292513 0.408377 255 255 255
1.218271 -2.103344 -2.048168 255 255 255
2.129374 -2.091417 -0.253368 255 255 255
5.106099 -1.580964 -1.726462 255 255 255
2.817135 1.237435 1.140209 255 255 255
4.031664 -1.998753 -1.823732 255 255 255
-0.767565 1.219577 -1.888247 255 255 255
-1.327966 0.680796 1.213025 255 255 255
-0.128007 1.238734 -1.951034 255 255 255
4.450572 1.032878 -1.991905 255 255 255
1.640800 -2.079022 -0.122008 255 255 255
4.491548 0.535597 -2.002108 255 255 255
4.694453 -0.137007 -1.530523 255 255 255
2.886545 -0.284288 1.100659 255 255 255
0.176294 0.655730 8.682133 255 255 255
5.608852 1.356470 7.449509 255 255 255
8.519048 0.832904 -1.243112 255 255 255
2.877421 -1.071934 0.687761 255 255 255
-2.008840 0.171562 3.889805 255 255 255
0.833858 0.608233 1.204711 255 255 255
2.873053 -0.316999 0.541465 255 255 255
2.964506 -0.200456 8.703876 255 255 255
-0.239575 0.004155 -2.085397 255 255 255
8.976482 1.492474 1.307571 255 255 255
0.302156 -2.194345 3.277176 255 255 255
0.949217 1.405266 2.108997 255 255 255
2.876214 -0.709839 0.369792 255 255 255
2.870955 -1.068921 0.691420 255 255 255
6.886002 1.316841 -1.762447 255 255 255
4.350249 -0.572395 -1.782417 255 255 255
2.852966 -0.767886 1.475335 255 255 255
2.998548 -1.804999 -2.101224 255 255 255
1.553598 -2.152694 2.697741 255 255 255
3.921049 1.329668 0.470982 255 255 255
3.554387 -2.376477 -0.979637 255 255 255
3.459755 1.202965 -1.754649 255 255 255
4.565386 -1.315351 -2.082216 255 255 255
0.600615 0.570012 1.254505 255 255 255
2.885918 -0.270678 0.266505 255 255 255
2.645765 0.393768 -2.158450 255 255 255
4.363697 0.528940 -1.904060 255 255 255
2.860892 -1.838420 3.978046 255 255 255
2.879538 0.340462 0.752273 255 255 255
2.874783 0.334370 2.357400 255 255 255
2.878121 -2.090603 0.996588 255 255 255
3.930472 -2.087534 -1.989957 255 255 255
-0.797674 -2.084972 4.900481 255 255 255
-0.082563 -2.082954 3.921806 255 255 255
4.364342 -0.605436 -1.901622 255 255 255
-2.094872 1.410279 9.594234 255 255 255
3.011267 0.560045 -1.820340 255 255 255
2.864530 -0.898208 1.150260 255 255 255
2.704117 -0.766590 -2.224846 255 255 255
0.848904 0.177963 1.265518 255 255 255
2.855645 -0.049609 1.113560 255 255 255
1.631773 -2.054316 1.604055 255 255 255
5.056325 -2.083094 0.452578 255 255 255
0.431218 1.362143 2.771747 255 255 255
1.293443 -0.004014 -2.166191 255 255 255
2.837615 -2.041851 2.869279 255 255 255
-1.135507 1.284385 3.763575 255 255 255
8.499333 -1.862678 0.457198 255 255 255
0.407208 -2.142695 3.324788 255 255 255
-0.311096 -2.216157 -2.174251 255 255 255
3.193288 -1.973192 4.040212 255 255 255
3.510032 0.413140 8.360368 255 255 255
-1.908231 -1.160942 -2.065084 255 255 255
2.787097 -2.044569 -1.247530 255 255 255
2.553534 -0.727751 8.320309 255 255 255
2.848524 0.139784 0.744131 255 255 255
0.505831 0.468756 -2.033548 255 255 255
-2.030628 -1.529142 -0.835151 255 255 255
2.844074 -1.487392 1.494727 255 255 255
0.966042 1.370837 2.083518 255 255 255
0.850491 1.361738 1.373908 255 255 255
-1.953348 -2.036558 6.037641 255 255 255
2.344745 -0.499594 -1.860603 255 255 255
3.390914 -2.174373 7.284818 255 255 255
0.335818 -2.107815 3.172431 255 255 255
5.078762 -2.051170 -1.234260 255 255 255
2.854244 1.148109 1.669337 255 255 255
2.877199 -0.009463 1.005300 255 255 255
3.261326 -0.720494 -2.052146 255 255 255
-1.873787 1.271039 -2.377811 255 255 255
-1.167520 1.038222 -1.748773 255 255 255
-1.323026 1.302635 4.791501 255 255 255
1.672268 -0.173195 -1.821837 255 255 255
3.256936 -1.889134 -1.957107 255 255 255
1.542585 1.355745 2.677747 255 255 255
2.894293 -0.522577 1.464657 255 255 255
-0.157516 -1.949068 -1.980475 255 255 255
5.064570 1.329278 7.434933 255 255 255
0.144018 -0.173220 -2.012517 255 255 255
2.888224 -1.194961 1.063757 255 255 255
8.418392 -1.071056 0.676696 255 255 255
2.869544 0.107159 1.149794 255 255 255
0.346545 1.346440 2.621413 255 255 255
-0.829187 -2.139590 3.853753 255 255 255
4.462018 -0.194914 -2.118011 255 255 255
7.393702 -2.102984 -0.038810 255 255 255
-1.867250 0.417594 0.895762 255 255 255
0.915943 -2.173319 3.811491 255 255 255
2.801614 0.964545 5.852739 255 255 255
-1.184793 -0.565918 8.329608 255 255 255
8.490516 0.752135 -0.637138 255 255 255
2.869223 -0.361794 0.951094 255 255 255
-1.983288 -2.107129 0.352201 255 255 255
8.467523 0.111759 -0.306186 255 255 255
7.401550 -2.030739 -1.770022 255 255 255
5.531552 -1.980045 -2.068455 255 255 255
2.658172 -2.182690 -2.117464 255 255 255
0.943761 1.337532 2.704283 255 255 255
5.273445 -0.916644 2.787974 255 255 255
0.960570 -2.152079 2.106889 255 255 255
5.679292 -2.082495 1.588896 255 255 255
-1.180466 0.993434 8.443308 255 255 255
-1.593826 1.164817 8.499805 255 255 255
0.684328 1.357847 1.009621 255 255 255
-1.780207 -0.535737 0.942292 255 255 255
-1.181679 -1.243834 8.407619 255 255 255
2.821113 0.180138 1.556556 255 255 255
0.199204 -1.314391 -1.955415 255 255 255
3.313798 1.296304 6.729382 255 255 255
7.835164 0.546666 -1.830384 255 255 255
2.874430 -2.045254 1.539294 255 255 255
3.303256 1.196404 -1.934403 255 255 255
6.242110 -2.177197 -0.031252 255 255 255
2.877886 -0.364714 0.950270 255 255 255
-1.908183 -0.224276 4.493778 255 255 255
4.501823 -2.051450 -1.218144 255 255 255
4.993571 0.995767 -1.876992 255 255 255
-0.809693 1.345685 3.235568 255 255 255
5.729166 0.947483 -1.805968 255 255 255
2.874438 1.062607 1.032882 255 255 255
-1.178120 -2.043582 3.830753 255 255 255
0.867056 1.340226 1.363222 255 255 255
2.822849 1.320267 2.795413 255 255 255
0.956907 1.387038 2.092545 255 255 255
-1.746308 -0.775927 -2.227155 255 255 255
1.883694 -2.016495 -0.638462 255 255 255
2.891567 -1.682535 8.221771 255 255 255
2.879370 0.047559 1.595113 255 255 255
4.763329 1.207031 -2.053810 255 255 255
3.692665 -1.770555 -1.445786 255 255 255
8.358026 1.284059 5.907353 255 255 255
4.497835 1.298303 -0.631727 255 255 255
-1.568726 -1.153578 -1.992916 255 255 255
-1.896459 0.177844 -0.786188 255 255 255
-1.858964 -0.211958 4.888728 255 255 255
2.876065 -0.511173 1.460496 255 255 255
1.735242 1.285723 -1.217956 255 255 255
2.835866 0.352171 1.280379 255 255 255
-1.532162 -0.819979 -0.667950 255 255 255
0.858208 0.630349 1.410115 255 255 255
-0.748190 1.061392 4.090784 255 255 255
5.383359 -0.765826 -1.823111 255 255 255
6.793399 -2.074677 -1.220367 255 255 255
4.619855 -0.670018 -2.115000 255 255 255
-0.815315 1.352311 4.475739 255 255 255
5.672153 1.303821 -1.776932 255 255 255
-1.454693 1.337623 0.605152 255 255 255
7.860710 -2.126488 1.149270 255 255 255
-0.156459 -2.124539 3.889266 255 255 255
2.867116 -0.997708 1.091460 255 255 255
6.786983 -2.074265 0.463702 255 255 255
2.878503 -0.688742 1.858275 255 255 255
0.887171 1.415924 4.453112 255 255 255
-27.517502 -0.081732 -43.299088 255 255 255
2.895133 -1.600401 0.072889 255 255 255
1.603270 1.334513 4.229384 255 255 255
2.875290 -0.639487 1.432019 255 255 255
-1.843474 -0.854042 -0.296283 255 255 255
2.850572 -0.698639 3.212655 255 255 255
2.865560 -1.001494 0.639600 255 255 255
2.863273 -1.670096 1.163914 255 255 255
0.046656 1.108244 9.027150 255 255 255
0.876170 -1.783256 -2.056730 255 255 255
8.414462 1.186560 -1.836054 255 255 255
2.869358 -0.457127 2.710818 255 255 255
2.855620 -0.730307 2.771807 255 255 255
2.728752 -2.168007 -0.257583 255 255 255
-1.186769 -1.670465 8.374235 255 255 255
2.466651 1.377611 1.943172 255 255 255
2.541918 1.459080 4.496142 255 255 255
2.849600 -0.984937 0.642517 255 255 255
-0.215588 0.628798 1.550158 255 255 255
-1.139609 -0.924326 0.374229 255 255 255
2.880018 -1.913462 1.706047 255 255 255
-1.967500 -0.910681 5.006061 255 255 255
-1.898131 -0.631339 0.451458 255 255 255
2.879284 -0.439487 0.447268 255 255 255
0.962133 0.628450 -3.668546 255 255 255
-1.866100 0.366153 0.881326 255 255 255
-1.171952 0.342870 0.799652 255 255 255
2.867253 -0.482072 0.843252 255 255 255
-0.848033 -2.105746 4.862307 255 255 255
0.858050 -0.616419 1.248868 255 255 255
-1.987212 -0.323825 2.724410 255 255 255
-1.641395 -1.976792 8.569069 255 255 255
8.134964 0.380280 8.509983 255 255 255
2.847679 0.026789 1.616883 255 255 255
3.880033 -2.092814 -0.143723 255 255 255
0.411034 -2.109422 2.682947 255 255 255
1.553044 -2.136879 2.073898 255 255 255
3.240427 -1.096401 0.760935 255 255 255
1.012056 -2.157976 4.982976 255 255 255
-2.047991 -0.926507 3.245599 255 255 255
4.377338 0.964161 -1.819222 255 255 255
0.350969 -2.131446 4.415299 255 255 255
0.431917 1.357007 3.902208 255 255 255
-2.766823 0.015677 9.101517 255 255 255
-1.721305 -1.975406 -0.638058 255 255 255
3.989547 -0.686343 -1.802119 255 255 255
2.181677 1.345924 5.080371 255 255 255
2.483430 0.421560 8.288460 255 255 255
4.733450 -0.034334 -1.798386 255 255 255
6.071121 -1.103232 -1.811714 255 255 255
2.188120 -2.148408 7.544255 255 255 255
0.946329 -2.149954 3.823933 255 255 255
-1.929208 -1.199798 8.560862 255 255 255
0.862799 0.592196 1.366057 255 255 255
-0.770787 0.541581 1.235515 255 255 255
1.561489 1.353385 2.086516 255 255 255
1.557632 -1.850975 2.959997 255 255 255
2.354512 1.296438 4.868992 255 255 255
-1.347084 -2.146725 2.718116 255 255 255
2.860450 -0.283000 1.283167 255 255 255
-0.138335 -2.122584 4.510343 255 255 255
3.344294 -2.133495 -0.086840 255 255 255
1.550230 1.355499 3.285618 255 255 255
8.490457 -0.357390 1.070872 255 255 255
0.541267 -1.964676 4.309148 255 255 255
-0.993620 0.690358 0.408354 255 255 255
-0.719686 -1.990506 -1.825225 255 255 255
3.393914 1.386227 -0.865529 255 255 255
8.474092 -0.148586 -0.301074 255 255 255
2.877505 -0.572276 1.912024 255 255 255
2.179951 -2.193191 -0.281627 255 255 255
-2.008759 -1.684080 -0.812509 255 255 255
1.260882 0.003918 -1.991073 255 255 255
-1.323447 -0.744063 -0.247716 255 255 255
-1.499261 1.343366 0.613633 255 255 255
5.643534 -2.099538 1.606022 255 255 255
-1.148040 -0.894944 0.377739 255 255 255
6.415897 -0.524243 -1.816143 255 255 255
4.738559 -0.007869 -1.805855 255 255 255
-1.905857 -0.234089 4.495138 255 255 255
-1.455088 -2.132972 3.245288 255 255 255
8.468155 -0.892149 5.681323 255 255 255
-1.956375 0.775756 4.997478 255 255 255
7.414106 1.332495 -0.050769 255 255 255
3.680614 -0.204868 -1.983701 255 255 255
2.841238 0.060586 3.278599 255 255 255
8.503947 -0.066343 3.787650 255 255 255
4.855356 -2.027392 -2.118983 255 255 255
-1.962065 -1.210802 4.473487 255 255 255
3.966459 1.253908 -0.682961 255 255 255
-0.893894 1.374349 3.237325 255 255 255
3.335990 -2.058354 4.668171 255 255 255
2.846164 -0.608695 2.813071 255 255 255
3.356287 1.326249 -0.104800 255 255 255
2.826391 -1.330249 4.771183 255 255 255
8.480612 -0.409724 -0.119814 255 255 255
3.758922 -0.210228 -2.124902 255 255 255
6.816171 -0.026846 -1.821265 255 255 255
2.872482 -1.902654 1.699615 255 255 255
