0.394695 -1.615289 3.187773 255 255 255
2.547771 -1.641345 1.220860 255 255 255
2.683676 -0.767534 5.427959 255 255 255
7.293478 0.893796 -0.712731 255 255 255
0.851540 -0.046659 5.331380 255 255 255
-0.581676 0.470767 2.359245 255 255 255
3.698872 0.908484 4.661347 255 255 255
6.676354 0.824978 3.699615 255 255 255
3.636518 0.898211 4.646753 255 255 255
-0.293203 -1.530227 3.532311 255 255 255
8.707496 0.925179 2.960743 255 255 255
1.688987 -1.695099 0.955856 255 255 255
-0.396826 -1.586593 4.598602 255 255 255
0.579148 -0.451450 5.257473 255 255 255
0.753484 0.888795 4.844852 255 255 255
1.303098 0.506145 5.258180 255 255 255
9.327528 -0.111035 1.199754 255 255 255
3.941193 -1.570959 4.160087 255 255 255
1.509080 0.161848 5.360759 255 255 255
1.161877 0.307752 5.356974 255 255 255
8.386081 -1.615786 1.025989 255 255 255
7.626478 -1.622892 1.389642 255 255 255
2.777075 0.817737 5.407893 255 255 255
9.356417 0.041767 1.844932 255 255 255
-0.826706 -1.619470 1.891039 255 255 255
1.799172 -1.595405 4.378114 255 255 255
0.648631 -0.604745 5.402128 255 255 255
-0.199804 0.032405 5.568017 255 255 255
8.837337 0.904994 0.334781 255 255 255
1.499550 -1.633731 4.129711 255 255 255
2.443451 0.908447 5.267914 255 255 255
1.664114 0.912994 5.238707 255 255 255
4.219808 -0.665792 -0.673822 255 255 255
0.135082 -1.717821 0.370874 255 255 255
1.355292 -1.614816 3.646888 255 255 255
1.190594 -1.614433 3.571679 255 255 255
7.835382 -0.552325 4.831246 255 255 255
8.891721 -1.644662 3.655700 255 255 255
0.652656 -0.580036 5.378282 255 255 255
3.142153 -0.635903 5.499652 255 255 255
-0.453060 0.587153 2.094317 255 255 255
0.423760 0.879422 -0.898586 255 255 255
0.851333 0.177696 5.301394 255 255 255
1.483169 -0.742326 5.427948 255 255 255
1.211662 -0.581456 5.375567 255 255 255
4.605086 -1.656229 2.405604 255 255 255
-0.524528 0.683105 3.269648 255 255 255
-0.350985 -1.546955 4.722055 255 255 255
8.101527 -0.303455 -0.681161 255 255 255
-0.843914 0.922722 -1.095868 255 255 255
1.527153 -1.607043 2.188362 255 255 255
-0.391842 -1.580112 4.598081 255 255 255
1.291628 -1.611994 3.287398 255 255 255
7.012245 -1.704843 4.676241 255 255 255
-0.700479 -0.156993 3.933201 255 255 255
-0.807193 -0.871287 5.010354 255 255 255
6.611927 -1.626425 4.114337 255 255 255
1.273645 0.175716 5.559988 255 255 255
3.714892 -1.582179 3.207410 255 255 255
1.449487 -1.792625 4.909674 255 255 255
2.656979 -1.623626 2.599137 255 255 255
0.793886 -0.414666 5.370510 255 255 255
9.294280 -1.614841 4.369585 255 255 255
0.386017 -1.628787 3.800267 255 255 255
-0.877563 0.313744 5.115511 255 255 255
0.332660 -0.598245 5.385883 255 255 255
0.374733 -1.658571 4.104233 255 255 255
-0.783847 0.289749 5.071833 255 255 255
0.851634 -0.048319 5.335283 255 255 255
-0.988949 -1.664256 3.938219 255 255 255
1.583076 -1.577998 3.755697 255 255 255
3.091858 -1.658482 3.557256 255 255 255
-0.697884 0.525094 3.587455 255 255 255
5.405961 1.072262 2.539998 255 255 255
0.329999 -0.610052 5.394435 255 255 255
0.842804 0.012144 5.324343 255 255 255
0.797128 -0.416673 5.372049 255 255 255
-0.277790 0.905660 -0.761758 255 255 255
6.184128 0.055700 5.585710 255 255 255
-0.659830 -0.406720 5.433090 255 255 255
2.565346 -1.857390 3.657646 255 255 255
2.767762 -1.568988 4.237079 255 255 255
3.438667 -0.777466 5.501911 255 255 255
5.918412 -0.864974 5.512612 255 255 255
2.692122 -1.673034 5.332979 255 255 255
3.254822 -1.052251 5.412258 255 255 255
-0.388135 -1.599306 1.511050 255 255 255
9.322260 -0.781232 0.160941 255 255 255
8.651406 -1.694120 1.635498 255 255 255
2.653207 -1.749117 0.971205 255 255 255
3.931084 -1.782957 1.502069 255 255 255
6.230386 -1.681489 0.524374 255 255 255
2.015208 0.887864 5.166397 255 255 255
6.615938 0.904377 3.136784 255 255 255
2.512287 -1.110448 5.496147 255 255 255
3.857518 -1.612492 5.262499 255 255 255
3.505275 0.663319 2.578398 255 255 255
8.493180 -1.691530 2.999458 255 255 255
7.555876 -1.550534 4.804538 255 255 255
2.323569 0.180290 5.312480 255 255 255
6.978668 -1.626919 1.239162 255 255 255
0.869319 0.131369 5.304012 255 255 255
-0.410638 -1.581036 3.577856 255 255 255
1.323845 0.814741 3.119605 255 255 255
1.538851 -1.584695 3.275465 255 255 255
1.005134 0.558155 5.255472 255 255 255
2.848592 0.501111 1.857860 255 255 255
1.261559 0.183612 5.555323 255 255 255
0.918786 -0.457686 5.271187 255 255 255
1.799918 -1.607023 4.376151 255 255 255
6.432107 -1.643801 3.648870 255 255 255
1.435337 0.758660 -1.847408 255 255 255
-0.954972 -0.910962 4.233293 255 255 255
1.215829 -0.600611 5.391863 255 255 255
-0.827353 -1.590618 3.525236 255 255 255
0.655078 0.309026 5.364057 255 255 255
0.755755 0.916578 5.257648 255 255 255
8.164363 -0.414557 -0.114065 255 255 255
6.584134 -0.165721 -0.560881 255 255 255
-1.223518 -0.641907 3.825068 255 255 255
2.664980 0.703359 5.419246 255 255 255
2.275714 -0.586864 -0.806591 255 255 255
-0.888722 -1.550509 3.890389 255 255 255
0.723217 -0.170252 5.374628 255 255 255
9.167207 -0.533143 1.176565 255 255 255
6.478671 -1.720800 3.659495 255 255 255
-0.329505 -1.547243 1.593111 255 255 255
-1.002628 0.928603 5.084281 255 255 255
3.977255 -1.573453 4.144297 255 255 255
1.737785 -0.579692 5.358930 255 255 255
4.421736 0.663572 2.812583 255 255 255
0.927936 0.922790 5.252437 255 255 255
7.471504 -1.545153 4.775731 255 255 255
0.887095 -0.609797 5.391343 255 255 255
0.655454 -0.577826 5.381216 255 255 255
6.080095 -1.614262 0.965381 255 255 255
6.682080 0.302628 -0.594612 255 255 255
2.887639 -1.820222 5.294061 255 255 255
1.586814 -0.045811 5.327246 255 255 255
1.064932 0.915566 5.230832 255 255 255
7.580796 -1.669498 4.122030 255 255 255
1.847097 0.907132 5.245608 255 255 255
-0.190498 -1.518590 2.426752 255 255 255
0.845715 0.002470 5.335142 255 255 255
1.341613 -0.117352 5.259340 255 255 255
1.572377 -1.561601 5.036871 255 255 255
3.374196 -1.700835 1.400271 255 255 255
9.358977 -1.199471 4.075391 255 255 255
8.648726 -1.675228 2.626513 255 255 255
2.403389 -1.638267 4.684431 255 255 255
1.589893 0.191701 5.312725 255 255 255
6.611207 0.184591 1.958584 255 255 255
8.151889 0.383840 5.031366 255 255 255
0.226460 -1.628111 2.424016 255 255 255
-0.294745 -1.878781 3.685124 255 255 255
7.433539 -1.675758 3.138185 255 255 255
3.636126 -1.715781 3.605048 255 255 255
-0.930420 0.039549 3.995878 255 255 255
1.624641 0.131625 5.325923 255 255 255
1.385633 0.914120 5.203429 255 255 255
-0.432474 -1.619609 3.514802 255 255 255
0.610383 -1.654881 2.678352 255 255 255
-0.405097 -1.591662 0.535481 255 255 255
6.024578 -1.657390 1.273865 255 255 255
1.387470 -0.675409 5.418327 255 255 255
2.761854 0.898785 4.677939 255 255 255
2.760257 0.897455 4.379880 255 255 255
6.791624 0.382119 0.917541 255 255 255
6.579754 0.742296 0.442613 255 255 255
1.086433 0.916176 3.662440 255 255 255
9.191109 0.641581 0.296606 255 255 255
-0.855047 0.155104 5.119268 255 255 255
-0.911209 0.886819 4.095744 255 255 255
-0.628353 0.492556 2.916924 255 255 255
6.044075 -1.682984 1.588211 255 255 255
0.884448 -0.612977 5.394413 255 255 255
-0.530116 0.496208 3.259936 255 255 255
1.689031 0.903187 4.593676 255 255 255
3.769906 -1.783987 2.159166 255 255 255
9.109015 -0.558684 0.981905 255 255 255
0.653358 -0.587353 5.388631 255 255 255
7.839828 -0.308058 5.466328 255 255 255
9.174552 0.293649 0.129836 255 255 255
1.322275 -0.166203 5.297101 255 255 255
1.291724 0.312086 5.368057 255 255 255
4.072400 0.065689 5.477870 255 255 255
-0.955545 0.175084 4.537916 255 255 255
0.588813 -0.446572 5.253465 255 255 255
1.346190 -0.446136 5.257566 255 255 255
1.506364 -1.667357 5.327265 255 255 255
0.381160 -1.688431 3.118976 255 255 255
7.653845 -1.719764 3.469395 255 255 255
-0.833756 -1.642533 2.479996 255 255 255
3.474885 -0.081064 -1.505401 255 255 255
1.241598 0.094312 5.541718 255 255 255
9.143722 -0.065939 0.607951 255 255 255
1.337895 -0.447760 5.256005 255 255 255
-0.897338 -0.977355 4.151907 255 255 255
-0.915884 -0.931815 4.212856 255 255 255
4.984264 -1.710112 3.575209 255 255 255
1.756175 -0.154681 5.273808 255 255 255
2.982037 -1.576699 3.614817 255 255 255
0.856956 0.180526 5.323531 255 255 255
1.161417 -1.596768 3.548979 255 255 255
-0.402325 -1.554611 3.593319 255 255 255
7.242681 -1.619633 3.682207 255 255 255
4.551098 0.857233 -0.615529 255 255 255
1.601258 0.130613 5.300287 255 255 255
0.589425 -0.116243 5.255439 255 255 255
0.911930 0.921807 5.216150 255 255 255
1.543143 -0.047923 5.335903 255 255 255
1.269703 0.166108 5.552230 255 255 255
2.347034 -0.441434 5.242280 255 255 255
9.277972 -1.590502 4.836401 255 255 255
3.627051 0.528036 4.652836 255 255 255
1.005926 -0.451297 5.254731 255 255 255
-0.394981 0.864684 5.098148 255 255 255
1.619531 -0.394374 5.346045 255 255 255
2.789663 -1.582224 4.236499 255 255 255
-0.762098 -0.617457 3.894924 255 255 255
2.328249 0.183606 5.309713 255 255 255
6.745458 0.283350 2.054346 255 255 255
1.938065 -1.668471 2.530494 255 255 255
1.570688 -1.569857 5.164909 255 255 255
9.318381 -1.697907 2.478335 255 255 255
9.063797 0.905557 0.501272 255 255 255
7.439266 -1.483228 4.201146 255 255 255
8.075418 0.848922 -0.677696 255 255 255
0.838841 0.008307 5.318486 255 255 255
8.624444 -1.663610 5.309160 255 255 255
2.876811 0.947968 4.374151 255 255 255
-0.544532 0.520972 2.725878 255 255 255
6.294981 -1.655418 5.193605 255 255 255
-0.581866 0.553879 1.956161 255 255 255
6.514059 0.774857 1.906161 255 255 255
-0.756350 -0.311284 5.421275 255 255 255
0.692520 -0.417935 5.374353 255 255 255
4.894680 -1.626010 4.790546 255 255 255
9.260901 0.885142 1.857313 255 255 255
1.566659 -1.541221 3.777770 255 255 255
0.812238 -0.044097 5.321821 255 255 255
1.573668 -1.573082 5.168587 255 255 255
-0.694911 -0.570664 3.839048 255 255 255
0.645934 0.313708 5.375543 255 255 255
1.745739 -0.153722 5.261486 255 255 255
1.230689 0.910814 5.243837 255 255 255
7.201007 0.895157 3.410794 255 255 255
2.525786 0.551602 5.338386 255 255 255
-0.767210 0.821915 0.581637 255 255 255
1.347614 -0.461843 5.272792 255 255 255
3.235240 0.886136 4.962680 255 255 255
4.910455 -0.213302 5.483312 255 255 255
9.286937 -0.762216 0.896744 255 255 255
4.032273 -0.192849 -2.719576 255 255 255
9.282836 -1.586150 3.865496 255 255 255
7.355107 0.581246 3.743517 255 255 255
2.750292 -1.587273 3.348262 255 255 255
-0.604845 -0.296856 5.192404 255 255 255
8.100427 -0.299818 -0.670898 255 255 255
-0.425105 -1.540320 2.546807 255 255 255
-0.311559 -1.558415 3.514399 255 255 255
-0.791284 -0.589357 3.886630 255 255 255
-0.818722 0.067511 5.108535 255 255 255
-0.585028 0.472518 3.087584 255 255 255
1.340385 -0.118073 5.257211 255 255 255
-0.140272 -1.651930 2.417130 255 255 255
2.684122 -1.651667 4.225923 255 255 255
5.967294 -0.187314 5.456238 255 255 255
2.440023 -0.478923 5.286762 255 255 255
4.971179 -1.625376 4.106802 255 255 255
1.709943 0.917290 3.547596 255 255 255
6.795649 -0.365891 -0.940997 255 255 255
2.158558 0.907744 5.239540 255 255 255
1.309130 -0.153225 5.265304 255 255 255
2.820457 -1.616725 5.040001 255 255 255
9.276218 0.899851 2.330337 255 255 255
3.119830 -1.547198 4.633105 255 255 255
2.348035 -0.379364 5.334103 255 255 255
7.444397 0.902857 2.825434 255 255 255
-0.827835 0.933867 3.534454 255 255 255
6.822146 0.292713 3.591684 255 255 255
3.765661 -1.628072 0.535338 255 255 255
9.249109 0.045248 4.056166 255 255 255
2.696460 -1.659786 4.129117 255 255 255
6.395324 -1.668299 1.220155 255 255 255
4.698821 -1.525714 3.334985 255 255 255
-0.481946 0.769413 5.536390 255 255 255
0.681375 -0.178198 5.359324 255 255 255
0.808785 -0.046800 5.326222 255 255 255
7.765531 0.933377 1.615394 255 255 255
-0.427219 0.076600 4.929500 255 255 255
0.553684 -1.658050 4.207258 255 255 255
1.753481 -0.592368 5.374127 255 255 255
0.325432 -0.610649 5.395247 255 255 255
2.456753 0.656256 5.264832 255 255 255
1.167421 0.313054 5.469267 255 255 255
9.068540 -0.481504 0.840590 255 255 255
-0.488149 0.918675 5.022840 255 255 255
1.574173 -0.000895 5.320532 255 255 255
5.217947 -1.691944 0.514308 255 255 255
1.696513 0.912276 3.667225 255 255 255
-0.396835 0.558170 2.174574 255 255 255
9.328129 -1.600774 4.171832 255 255 255
4.099081 -1.637403 4.245810 255 255 255
2.231309 -0.897350 -0.735691 255 255 255
7.741290 0.890123 3.277954 255 255 255
2.552230 -1.700123 3.587469 255 255 255
1.114753 -0.397047 5.334429 255 255 255
2.178725 -0.723571 5.510097 255 255 255
-0.846766 -0.476698 4.007075 255 255 255
0.666593 -0.671391 5.400155 255 255 255
1.614206 -0.389465 5.338692 255 255 255
2.542473 -1.593108 1.277485 255 255 255
1.241995 -0.342799 5.396642 255 255 255
1.116364 -0.402532 5.338617 255 255 255
2.482476 0.666493 5.280746 255 255 255
9.106404 -0.494338 0.875549 255 255 255
1.623561 0.679677 5.372750 255 255 255
7.916946 -0.296983 -0.943759 255 255 255
1.814115 -1.575427 3.694275 255 255 255
4.152428 -0.913228 5.677925 255 255 255
2.419779 0.247125 5.292880 255 255 255
2.841717 -1.655234 5.059354 255 255 255
1.580198 -0.001388 5.327805 255 255 255
3.965171 -1.563272 4.902211 255 255 255
3.680182 -1.680150 1.616854 255 255 255
6.684508 0.921382 0.345027 255 255 255
-0.850502 -0.289814 3.691003 255 255 255
3.983139 -1.567742 4.248114 255 255 255
0.697399 -0.419822 5.375599 255 255 255
-0.821344 -1.584588 1.953178 255 255 255
3.625250 0.886338 5.068600 255 255 255
3.365111 0.951968 4.981266 255 255 255
2.903413 -1.475156 2.578352 255 255 255
1.774535 -0.607529 5.394740 255 255 255
1.618805 -0.389965 5.345456 255 255 255
2.773810 0.918238 4.670119 255 255 255
3.724490 0.554924 5.090024 255 255 255
0.649076 0.311167 5.370554 255 255 255
1.990906 0.922550 4.128638 255 255 255
2.800027 -1.716403 5.438710 255 255 255
-0.406266 0.906458 3.561948 255 255 255
3.422932 -0.402084 5.502809 255 255 255
7.429150 0.910547 2.826473 255 255 255
2.443609 0.907804 5.267405 255 255 255
4.952314 -1.474525 4.289671 255 255 255
9.164644 0.909227 3.127581 255 255 255
8.703072 -1.631942 4.903814 255 255 255
0.360069 -1.605712 3.084420 255 255 255
1.370889 0.906959 5.259824 255 255 255
2.689422 -1.656418 4.126997 255 255 255
2.829940 -1.403702 4.414876 255 255 255
5.383111 0.955192 5.568513 255 255 255
4.219675 0.068530 5.533769 255 255 255
2.430905 -1.665575 2.538223 255 255 255
6.031971 -1.657067 0.984022 255 255 255
6.589733 -1.629805 2.196726 255 255 255
1.821109 -0.028706 5.378882 255 255 255
3.905047 -1.719829 5.307821 255 255 255
4.356574 0.532466 4.662731 255 255 255
7.107183 -1.568348 1.607647 255 255 255
7.925299 0.907840 0.648932 255 255 255
3.317320 0.629606 2.675494 255 255 255
3.041925 -1.189288 5.408556 255 255 255
5.415236 -1.675249 5.056426 255 255 255
2.366504 -1.634603 3.531409 255 255 255
0.381791 -1.638456 3.797458 255 255 255
3.018385 -1.142374 5.393381 255 255 255
1.667667 -0.152036 5.277833 255 255 255
0.593700 -1.626177 4.372772 255 255 255
5.106190 -1.585119 3.782608 255 255 255
4.829403 -1.649879 4.131523 255 255 255
3.137507 -1.617460 3.573948 255 255 255
3.039208 -1.192767 5.405181 255 255 255
7.944246 0.898303 -0.481161 255 255 255
4.984221 -1.609700 4.034824 255 255 255
1.576643 0.044299 -0.557187 255 255 255
3.873896 -0.808942 5.443826 255 255 255
2.142164 0.916621 4.287905 255 255 255
3.886828 -0.131854 5.517145 255 255 255
7.382592 -1.788538 0.395738 255 255 255
2.351698 -0.392464 5.342200 255 255 255
2.545661 -1.645151 2.579918 255 255 255
3.936606 -1.664775 4.104099 255 255 255
1.808671 -0.163261 5.333914 255 255 255
1.442742 -0.688442 5.408096 255 255 255
3.589869 -1.656198 3.718863 255 255 255
7.549508 -1.594526 1.704909 255 255 255
6.547122 -1.599889 4.712079 255 255 255
-0.922724 0.589498 2.565671 255 255 255
2.321789 -0.046902 5.320639 255 255 255
9.251755 0.067327 1.920329 255 255 255
3.280255 -0.928070 5.477365 255 255 255
1.991642 0.926288 3.817056 255 255 255
0.384258 -1.636091 5.189255 255 255 255
7.180568 0.083962 0.830667 255 255 255
0.402226 -1.610680 4.835331 255 255 255
0.821354 -0.042331 5.321701 255 255 255
1.410369 -1.664134 0.498691 255 255 255
0.350297 -1.583391 4.569212 255 255 255
-0.671012 0.320608 3.153312 255 255 255
3.041558 -1.204362 5.408989 255 255 255
1.745672 -0.118262 5.268826 255 255 255
6.100042 -1.644140 3.283337 255 255 255
2.144487 0.921155 4.596210 255 255 255
3.610200 0.876697 5.423235 255 255 255
1.588236 -0.049530 5.336706 255 255 255
0.562846 -1.658702 3.591571 255 255 255
1.846045 0.910056 5.244190 255 255 255
2.650681 -1.650749 4.155406 255 255 255
2.396845 -0.452657 5.260286 255 255 255
9.150649 -0.561977 0.197499 255 255 255
2.750424 -0.845135 5.478356 255 255 255
6.280567 -0.383467 -1.381678 255 255 255
3.704027 -1.677282 1.611748 255 255 255
4.055608 0.061358 5.541204 255 255 255
4.942337 -1.588572 5.260969 255 255 255
-0.229478 -1.644651 0.390743 255 255 255
-0.397146 0.894927 2.180672 255 255 255
-0.817396 -0.984734 1.616682 255 255 255
1.659709 -0.153947 5.274582 255 255 255
8.103372 -0.674974 4.943357 255 255 255
-0.478780 -1.306829 4.011765 255 255 255
4.936626 0.730038 2.612278 255 255 255
2.035644 -0.716106 5.507476 255 255 255
8.202625 -1.587429 2.255552 255 255 255
4.220103 0.905300 5.518374 255 255 255
1.431202 -0.647007 5.411342 255 255 255
3.886163 -1.649943 4.130730 255 255 255
0.792578 0.192082 5.330336 255 255 255
2.513515 -1.613852 3.684055 255 255 255
-0.833247 -0.808807 -0.199183 255 255 255
1.664012 -0.452146 5.261736 255 255 255
2.038724 0.325147 5.394332 255 255 255
4.861067 -1.697335 1.578015 255 255 255
2.346131 0.173263 5.301579 255 255 255
0.735903 -1.629870 3.560565 255 255 255
8.521259 -1.668197 1.660719 255 255 255
2.077862 0.944428 5.225904 255 255 255
0.494870 -1.586337 1.273822 255 255 255
3.029961 -1.607943 3.674616 255 255 255
6.628521 0.868322 0.612878 255 255 255
3.873317 -0.122183 5.498608 255 255 255
6.219053 -1.699230 3.723901 255 255 255
-0.691528 0.915114 3.644949 255 255 255
9.130781 -0.138556 5.564184 255 255 255
2.758413 0.916425 4.758035 255 255 255
9.055814 0.891792 -0.279570 255 255 255
0.223805 -0.470783 5.293415 255 255 255
4.393712 0.647168 2.863525 255 255 255
3.716224 0.490618 4.884619 255 255 255
2.750566 -0.841115 5.478286 255 255 255
4.204715 -1.669864 3.635391 255 255 255
-0.899542 0.951479 0.683418 255 255 255
7.906925 0.917441 2.968966 255 255 255
2.036323 -0.719513 5.508722 255 255 255
1.529887 -0.451275 -0.766299 255 255 255
3.903932 -1.649570 5.305128 255 255 255
5.362732 -1.502483 1.508238 255 255 255
2.054016 -0.146295 5.265219 255 255 255
1.316910 -0.459573 5.270233 255 255 255
9.121514 0.094381 4.952839 255 255 255
1.747324 -0.117085 5.273929 255 255 255
1.457251 -0.172172 5.377744 255 255 255
2.066541 -0.669669 5.465142 255 255 255
6.177456 -1.725961 1.022281 255 255 255
9.300289 0.911959 -0.778188 255 255 255
2.479454 0.658468 5.282392 255 255 255
11.107810 -0.670334 5.380205 255 255 255
6.217365 -1.694946 4.110764 255 255 255
3.156946 0.924684 5.174661 255 255 255
3.198175 -1.047475 5.430162 255 255 255
8.690000 -1.580186 4.365526 255 255 255
1.016932 -1.615364 2.382119 255 255 255
1.247809 -1.637895 1.682224 255 255 255
8.036666 -1.678697 0.535071 255 255 255
2.987972 0.840165 2.642304 255 255 255
1.738663 -0.152058 5.282731 255 255 255
4.817795 -1.597140 3.673370 255 255 255
7.427933 -1.671706 2.534598 255 255 255
9.333263 0.922233 5.542193 255 255 255
-1.039603 0.023682 3.985549 255 255 255
8.777816 0.090970 0.796933 255 255 255
1.579568 0.017603 5.336471 255 255 255
2.282933 -0.050395 5.337508 255 255 255
0.484279 -2.115392 2.887663 255 255 255
3.664475 -1.695962 1.577760 255 255 255
-0.534854 0.961654 3.485729 255 255 255
2.417185 -0.153259 5.282675 255 255 255
6.318525 -1.653124 4.239140 255 255 255
8.244161 -0.420774 5.031021 255 255 255
8.412159 0.889318 4.634682 255 255 255
6.442929 -1.557305 1.753348 255 255 255
-0.610068 -1.912260 2.041792 255 255 255
3.359055 0.920852 5.070024 255 255 255
5.687233 -2.062191 1.182384 255 255 255
8.216431 0.862562 4.641057 255 255 255
9.329940 -1.619423 3.090458 255 255 255
4.892660 -1.641271 4.782656 255 255 255
0.333097 -1.649508 3.812380 255 255 255
8.666635 -1.603378 5.281001 255 255 255
3.629726 0.525925 4.657694 255 255 255
-0.381977 0.893476 2.194012 255 255 255
1.933107 -1.665114 2.525008 255 255 255
2.497121 -1.654212 1.652745 255 255 255
1.434692 -0.630423 5.403151 255 255 255
4.300199 -1.677751 3.542515 255 255 255
0.420619 -1.682354 4.131013 255 255 255
2.442956 0.912759 5.266299 255 255 255
6.797179 0.412132 0.940041 255 255 255
0.535736 -0.767912 5.459762 255 255 255
2.479939 -1.604153 1.269750 255 255 255
6.146626 -1.591976 1.981827 255 255 255
3.130136 -1.607708 3.573384 255 255 255
0.212045 -0.172638 5.308650 255 255 255
7.689572 -1.620401 3.659553 255 255 255
0.707093 0.296479 5.321061 255 255 255
8.540755 -1.705534 5.412364 255 255 255
0.413938 -1.650875 5.320192 255 255 255
1.164422 -0.745541 5.419977 255 255 255
2.728241 -1.616442 3.204619 255 255 255
-0.694384 -0.417660 5.273230 255 255 255
4.323569 -1.627377 3.608845 255 255 255
4.075688 -1.665578 4.151781 255 255 255
3.155622 -1.081489 5.417974 255 255 255
3.788704 -0.181163 5.465626 255 255 255
9.318885 -1.593568 3.068137 255 255 255
-0.090079 -1.626523 2.291307 255 255 255
0.357720 -1.745185 2.145753 255 255 255
8.579249 -1.711537 4.110622 255 255 255
1.579591 -1.649875 3.648343 255 255 255
1.548557 -0.044431 5.332967 255 255 255
8.474087 -1.619465 3.275285 255 255 255
0.313015 -0.164370 5.264423 255 255 255
2.412394 -0.157569 5.282600 255 255 255
3.877053 -1.674997 4.139233 255 255 255
2.082604 -0.117606 5.266423 255 255 255
1.322121 -0.117742 5.263553 255 255 255
8.167704 0.316698 4.786812 255 255 255
1.205261 -0.694796 5.416584 255 255 255
0.360374 -1.603522 3.079787 255 255 255
1.432596 -1.512014 4.955896 255 255 255
3.916471 -1.681076 5.239742 255 255 255
7.833334 -0.459245 5.521881 255 255 255
5.889999 -1.543737 5.209027 255 255 255
6.587236 -1.700558 4.517636 255 255 255
8.207814 0.533805 4.795743 255 255 255
2.066446 -0.710357 5.492284 255 255 255
-0.818436 -1.656775 2.427721 255 255 255
5.179944 -1.649603 0.562728 255 255 255
2.139669 0.914759 3.671827 255 255 255
3.586517 0.509927 5.041896 255 255 255
4.990375 -1.588643 2.572817 255 255 255
5.623253 -0.332845 -0.573488 255 255 255
2.757422 0.913496 3.836362 255 255 255
3.664818 0.910755 4.656608 255 255 255
-0.409982 -1.592550 4.605532 255 255 255
3.247635 0.912686 5.520579 255 255 255
8.544817 0.891691 -0.865563 255 255 255
2.724053 -1.601316 3.677301 255 255 255
0.404000 -1.666931 5.236166 255 255 255
2.334882 0.189882 5.318689 255 255 255
-0.942075 0.008962 4.005790 255 255 255
2.352405 -0.387468 5.341170 255 255 255
8.652174 -1.682781 1.533176 255 255 255
-0.398399 -2.243035 -1.011882 255 255 255
6.546373 0.897669 1.977123 255 255 255
3.574456 -0.248972 5.520436 255 255 255
1.539737 -0.464248 -0.842407 255 255 255
2.483456 -1.629154 1.688048 255 255 255
6.608046 -1.595160 2.392628 255 255 255
4.570437 -0.726667 -1.380235 255 255 255
1.534894 -1.580142 3.188609 255 255 255
2.767779 0.905137 3.769125 255 255 255
-0.966101 -0.450458 4.548490 255 255 255
9.259298 0.066452 1.917921 255 255 255
1.525978 -1.590001 3.174685 255 255 255
8.311865 -1.662008 1.693708 255 255 255
4.326646 0.807348 -0.253148 255 255 255
1.818231 -0.025536 5.377613 255 255 255
3.656111 -1.697117 1.579499 255 255 255
-0.471667 -1.611974 3.551184 255 255 255
3.624514 -0.243273 5.533301 255 255 255
3.665650 -0.249025 5.557920 255 255 255
3.529246 -1.631623 4.667044 255 255 255
2.996970 0.522090 3.178001 255 255 255
3.955768 -1.691547 3.117997 255 255 255
1.854394 -0.400272 5.337306 255 255 255
1.303609 -1.594064 3.300041 255 255 255
3.144005 -1.628267 3.567046 255 255 255
8.476311 -1.582670 4.364952 255 255 255
1.491598 -1.408174 1.119455 255 255 255
2.078739 -0.809565 5.490198 255 255 255
-0.376639 0.880395 2.204267 255 255 255
3.653265 -0.728639 5.507794 255 255 255
2.214439 -0.895478 -0.709876 255 255 255
3.716926 0.489716 4.881867 255 255 255
8.308659 -1.672868 4.124263 255 255 255
2.775799 -1.606659 5.051859 255 255 255
6.984340 0.686259 0.545165 255 255 255
-0.963235 -0.240707 4.027485 255 255 255
9.284101 -1.902347 4.047183 255 255 255
7.301597 -1.700654 0.469443 255 255 255
-2.965231 -2.846546 -11.925502 255 255 255
5.688787 -0.334851 -0.708093 255 255 255
3.392637 0.380051 2.871243 255 255 255
9.289066 -0.809896 1.046998 255 255 255
0.270459 -1.669293 3.188979 255 255 255
1.551058 -0.044579 5.335101 255 255 255
7.272029 -1.708058 0.984531 255 255 255
3.029171 -0.777805 5.417297 255 255 255
3.581315 -1.712603 2.258576 255 255 255
3.540473 -1.641622 2.408325 255 255 255
3.977537 -1.585351 4.123988 255 255 255
7.136966 0.894967 -0.869165 255 255 255
2.745241 -0.845271 5.476487 255 255 255
4.864480 -1.648828 1.656601 255 255 255
5.589626 -0.251265 5.405856 255 255 255
8.472078 -1.627918 4.772456 255 255 255
4.821872 -1.646071 1.672059 255 255 255
6.264826 -1.670723 4.102947 255 255 255
2.167128 -0.422089 5.380401 255 255 255
3.461828 0.378102 2.845308 255 255 255
6.958467 -1.395790 5.166306 255 255 255
1.547641 -1.570442 5.048237 255 255 255
7.098104 -1.679028 2.349859 255 255 255
7.196298 -1.678603 3.623116 255 255 255
1.027672 -1.598342 2.403087 255 255 255
1.614387 -1.663237 5.330579 255 255 255
4.928431 -1.658185 3.644820 255 255 255
0.582057 -1.657415 4.369431 255 255 255
6.493125 -1.619107 5.043817 255 255 255
6.614497 0.849714 3.703381 255 255 255
1.851128 -0.398178 5.340458 255 255 255
0.824295 -0.693863 5.461383 255 255 255
-0.916095 -0.018457 4.014750 255 255 255
4.592009 0.085417 5.491433 255 255 255
0.573165 -1.594720 1.292731 255 255 255
10.050980 -2.070085 2.465820 255 255 255
2.560346 -1.657497 3.472875 255 255 255
9.254048 -1.644977 3.108618 255 255 255
7.875071 -1.616582 3.545877 255 255 255
3.625200 0.888986 5.068089 255 255 255
1.581058 -1.662085 3.624170 255 255 255
3.138605 -1.085227 5.413135 255 255 255
4.936401 -1.440240 4.206526 255 255 255
1.139095 -1.631982 4.660446 255 255 255
1.356401 -1.559062 2.647180 255 255 255
4.344966 0.521826 4.660695 255 255 255
3.131339 -1.065991 5.402208 255 255 255
9.152612 -0.417938 1.068936 255 255 255
5.161488 -1.605651 4.777028 255 255 255
0.676211 -1.669525 3.620666 255 255 255
1.537272 -1.601304 5.182068 255 255 255
4.905361 -1.679731 1.618377 255 255 255
3.841898 -0.117301 5.483603 255 255 255
7.221575 -1.692152 1.609154 255 255 255
3.045536 0.629843 2.650037 255 255 255
2.006934 -0.619953 -0.845085 255 255 255
-3.647978 0.163263 3.926643 255 255 255
2.771447 -1.646355 3.160939 255 255 255
2.602594 0.913540 3.826808 255 255 255
0.430320 -1.644325 5.308464 255 255 255
2.466448 -1.626550 1.694579 255 255 255
3.462233 0.407905 2.700395 255 255 255
2.760216 0.916441 4.143773 255 255 255
7.209901 -1.688806 3.599612 255 255 255
0.315887 -0.948694 -0.856756 255 255 255
6.805281 -1.624166 4.733046 255 255 255
6.318045 -1.640485 3.151499 255 255 255
0.529043 -0.764369 5.460977 255 255 255
2.194305 -0.660481 -0.784209 255 255 255
3.963672 -1.571556 3.183655 255 255 255
3.887323 -1.655093 4.124763 255 255 255
-0.595828 0.877874 3.703602 255 255 255
5.107955 -1.577503 4.149854 255 255 255
6.093869 -1.669428 3.756233 255 255 255
4.793293 -1.628087 4.687445 255 255 255
4.869118 -0.133817 5.466449 255 255 255
4.230945 -1.630374 3.592455 255 255 255
9.285271 -1.137097 4.042523 255 255 255
5.021201 -1.662326 4.123908 255 255 255
1.931759 -1.633442 3.559760 255 255 255
9.248209 -1.180517 1.965052 255 255 255
7.892677 0.899396 1.594763 255 255 255
9.270135 -0.010738 3.970773 255 255 255
-0.691881 -1.930714 1.938159 255 255 255
1.942459 -1.627310 3.565623 255 255 255
6.207273 -1.631690 5.272974 255 255 255
9.522755 -1.219591 1.861946 255 255 255
1.191503 -1.606770 3.571072 255 255 255
4.219387 -1.593158 3.681220 255 255 255
9.581910 -1.982633 2.859870 255 255 255
3.520458 -1.559175 2.544840 255 255 255
7.505508 -1.736280 5.239022 255 255 255
3.765550 -1.640089 0.457813 255 255 255
2.532198 -1.613733 1.723705 255 255 255
7.898020 0.901432 2.671580 255 255 255
9.168848 0.915203 1.886559 255 255 255
6.283156 -1.561073 5.032684 255 255 255
3.611338 0.495822 4.894086 255 255 255
7.557409 0.938396 2.008877 255 255 255
0.401464 -1.658195 4.129967 255 255 255
3.890581 -1.660083 4.123176 255 255 255
7.042925 -1.547472 3.626484 255 255 255
1.732562 -0.744320 5.428808 255 255 255
3.551580 -1.632974 2.422952 255 255 255
3.930073 -1.685948 1.608274 255 255 255
11.285637 -1.535703 1.156238 255 255 255
4.037034 0.241785 2.841651 255 255 255
4.855557 -0.131512 5.460503 255 255 255
4.520315 0.525169 3.124076 255 255 255
4.034802 0.231765 2.830427 255 255 255
2.305256 -0.042141 5.320086 255 255 255
3.539745 0.438089 2.899815 255 255 255
4.384731 0.537413 4.664182 255 255 255
3.817921 0.440403 2.956770 255 255 255
4.400940 -1.679295 3.494970 255 255 255
4.814525 -1.805175 1.501726 255 255 255
1.654677 -0.791005 5.466669 255 255 255
2.530271 -1.620312 4.364553 255 255 255
5.120194 -1.652476 3.152853 255 255 255
0.798249 -0.201417 5.366322 255 255 255
1.830883 -1.632391 3.662622 255 255 255
8.649372 -1.657973 2.648575 255 255 255
4.910260 -1.597395 4.790648 255 255 255
4.132541 -1.602914 2.313462 255 255 255
6.212833 -1.617923 3.640681 255 255 255
6.188711 -1.625074 0.461027 255 255 255
4.776752 -1.664608 2.397865 255 255 255
2.620168 -1.647096 2.563482 255 255 255
3.637419 0.901721 5.076462 255 255 255
4.954251 -1.665596 4.793406 255 255 255
2.923403 0.907428 5.525678 255 255 255
3.959773 -1.586725 3.161023 255 255 255
7.255636 -1.686697 1.632725 255 255 255
6.217212 0.097909 5.458868 255 255 255
1.592904 -1.660472 1.138452 255 255 255
7.097032 -1.612880 1.333238 255 255 255
0.286716 -1.699328 5.349016 255 255 255
5.176965 -1.635983 4.750455 255 255 255
1.612552 -1.649871 1.143838 255 255 255
1.500502 -1.622741 4.216925 255 255 255
7.726093 0.714554 3.696542 255 255 255
3.549352 -1.646593 3.519153 255 255 255
0.507009 -1.748192 3.583892 255 255 255
0.488017 -1.656681 4.016682 255 255 255
5.115831 -1.584815 4.749990 255 255 255
4.952578 -1.649929 2.403828 255 255 255
4.632052 0.108280 5.536173 255 255 255
7.387642 -1.681188 4.109165 255 255 255
1.392256 -1.653036 0.502213 255 255 255
8.573587 -1.655776 1.943135 255 255 255
7.457380 -1.639488 5.297471 255 255 255
5.882565 -1.636483 1.242349 255 255 255
2.987314 -0.401536 5.481701 255 255 255
8.060153 0.912628 2.200705 255 255 255
3.368336 0.913977 5.539112 255 255 255
3.957597 0.890789 3.600166 255 255 255
2.988043 -1.616400 3.276286 255 255 255
4.445725 0.927274 4.181959 255 255 255
1.281501 -1.798172 2.373365 255 255 255
3.925897 -0.658638 5.420781 255 255 255
7.093903 -1.735896 2.242607 255 255 255
2.182607 -0.755703 5.498507 255 255 255
6.846791 -1.020170 5.460350 255 255 255
-0.258589 -1.628909 2.796088 255 255 255
7.466971 -1.664481 5.298209 255 255 255
5.526023 0.918993 5.461022 255 255 255
-0.185566 0.771810 5.101417 255 255 255
8.706350 -2.131056 5.447057 255 255 255
1.708324 -0.741001 5.438798 255 255 255
4.624798 -1.077323 5.458070 255 255 255
3.565782 -1.614553 4.671515 255 255 255
6.672649 0.903071 3.659382 255 255 255
8.361336 -1.673193 1.651547 255 255 255
8.510726 -1.691887 0.491555 255 255 255
5.314149 -1.586086 4.384343 255 255 255
8.348751 -1.680102 3.614887 255 255 255
0.352125 -1.664930 3.046450 255 255 255
4.622876 0.100312 5.519195 255 255 255
3.888319 -0.855220 5.488389 255 255 255
3.847655 0.445606 2.914824 255 255 255
5.114609 -1.588663 4.574224 255 255 255
7.218874 0.864625 1.862944 255 255 255
2.987463 -0.231701 5.505969 255 255 255
5.387979 -0.275879 5.517260 255 255 255
1.126348 -0.756341 5.442981 255 255 255
6.641693 -1.592973 3.589684 255 255 255
6.584545 0.950166 5.600844 255 255 255
0.466904 -1.628007 3.251682 255 255 255
2.333489 -1.762666 3.340995 255 255 255
1.090952 -0.765674 5.450233 255 255 255
6.236455 0.078222 5.524729 255 255 255
1.213897 -1.580080 3.593898 255 255 255
5.447995 -0.616446 -0.940326 255 255 255
2.517602 -1.619198 1.712601 255 255 255
1.549006 -1.579954 4.231607 255 255 255
4.802797 -0.776253 5.430393 255 255 255
3.118606 0.708517 3.116072 255 255 255
9.289479 0.902609 3.740669 255 255 255
2.518487 -1.095730 5.481121 255 255 255
4.377722 0.532839 5.080422 255 255 255
4.006336 -1.612325 2.385829 255 255 255
1.941863 -1.678727 1.609688 255 255 255
2.300587 -1.656918 4.152180 255 255 255
2.014177 -0.600835 -0.816748 255 255 255
0.416881 -1.659800 2.287674 255 255 255
7.210555 -0.239653 5.396274 255 255 255
1.635489 -1.639797 5.313492 255 255 255
2.600744 0.034084 5.467723 255 255 255
6.078514 -1.658896 3.306516 255 255 255
-0.734320 -2.393991 2.318549 255 255 255
5.077229 -1.528944 2.328896 255 255 255
7.283239 0.325172 1.897204 255 255 255
-0.479619 0.561961 3.612079 255 255 255
0.850829 -1.580878 1.273252 255 255 255
5.455289 -0.618910 -0.909200 255 255 255
8.886467 -1.624294 4.399657 255 255 255
3.936869 -1.631646 4.942011 255 255 255
8.239352 -1.727791 5.573124 255 255 255
3.137484 -1.629089 3.565152 255 255 255
6.254754 -1.683527 3.715369 255 255 255
1.534286 -1.591450 4.123622 255 255 255
7.955672 -0.622751 -0.963176 255 255 255
5.218122 -1.632315 4.790196 255 255 255
7.060081 -0.158523 5.471488 255 255 255
5.125829 -1.592913 3.671538 255 255 255
1.012657 -1.608176 2.378840 255 255 255
3.562964 -1.629197 2.427363 255 255 255
0.318005 -1.708602 4.022748 255 255 255
7.267420 0.823625 2.073436 255 255 255
5.101527 -1.585593 4.236494 255 255 255
5.464636 -0.298191 5.498005 255 255 255
4.746939 0.014339 5.455081 255 255 255
6.873920 -1.675385 2.527516 255 255 255
9.333545 -0.107277 1.201532 255 255 255
2.514264 -1.111347 5.488539 255 255 255
7.383017 -1.675835 5.224333 255 255 255
4.138070 -1.178069 5.396101 255 255 255
6.212970 -1.666702 4.110241 255 255 255
7.943128 0.698272 4.835786 255 255 255
4.605450 -0.845223 5.486586 255 255 255
4.595652 -1.032961 5.380065 255 255 255
3.540107 0.913129 5.535219 255 255 255
7.401192 -1.660271 0.463962 255 255 255
9.315637 0.898936 5.402678 255 255 255
3.546457 -1.620110 3.545155 255 255 255
1.929818 -1.652601 3.543201 255 255 255
4.357569 0.396371 2.941637 255 255 255
8.593772 -1.636962 5.288160 255 255 255
4.594899 -0.845046 5.484603 255 255 255
3.184959 0.016399 5.066282 255 255 255
5.416551 -0.409153 5.494152 255 255 255
5.089748 0.890076 5.494459 255 255 255
5.271949 -1.905759 3.015058 255 255 255
9.329750 -1.625948 3.239670 255 255 255
9.705459 -1.267114 4.050298 255 255 255
5.021294 -1.665231 5.325091 255 255 255
8.350541 0.893756 4.622655 255 255 255
6.978045 -1.728864 3.495564 255 255 255
6.518248 0.885365 5.494351 255 255 255
1.638610 -1.678280 4.136646 255 255 255
2.799385 -1.676119 5.332168 255 255 255
3.597143 0.651643 3.174951 255 255 255
2.568898 -1.574903 3.384451 255 255 255
3.611520 -1.608620 2.464632 255 255 255
2.721215 -1.599462 4.111086 255 255 255
3.846683 0.439179 2.930767 255 255 255
0.606929 -0.760260 5.435824 255 255 255
6.969606 -0.805957 5.449303 255 255 255
6.446285 0.050779 5.536344 255 255 255
2.588806 -1.650803 3.649482 255 255 255
4.607095 0.100004 5.504587 255 255 255
5.654408 -0.332656 -0.662325 255 255 255
4.213021 -1.616984 3.665991 255 255 255
3.371459 -0.683372 5.513575 255 255 255
3.962722 -1.601783 3.990053 255 255 255
3.549171 -1.618441 3.549652 255 255 255
2.772273 -1.607780 3.206072 255 255 255
-0.560880 -0.921406 -1.007775 255 255 255
8.686276 -1.893427 2.032227 255 255 255
0.497767 -1.708846 2.212787 255 255 255
2.954146 -1.622217 2.370527 255 255 255
1.705242 -0.725842 5.425129 255 255 255
4.456853 0.549463 3.134937 255 255 255
4.240527 -1.052272 5.402147 255 255 255
3.519240 0.440517 2.870932 255 255 255
4.929565 -1.630923 2.419912 255 255 255
4.615211 0.103063 5.517125 255 255 255
4.863690 -0.123807 5.490723 255 255 255
7.794505 -1.622312 2.203329 255 255 255
4.377045 0.533477 4.660922 255 255 255
3.020705 0.516915 3.154897 255 255 255
2.352494 -1.696233 3.388464 255 255 255
1.583236 -1.666230 5.301839 255 255 255
7.519769 -1.715253 5.313144 255 255 255
9.190640 0.918114 2.822463 255 255 255
4.064604 0.034634 5.520846 255 255 255
6.254731 -1.652254 4.109982 255 255 255
4.977737 -1.653760 0.449022 255 255 255
6.826782 -1.690416 1.630857 255 255 255
-0.737269 0.573715 3.556093 255 255 255
4.149456 -1.203985 5.406814 255 255 255
6.065454 -1.672106 1.632825 255 255 255
7.337570 0.903078 0.622516 255 255 255
3.913095 -1.600771 3.167718 255 255 255
5.088675 -1.586747 3.767961 255 255 255
2.722674 -1.588411 4.113526 255 255 255
5.828607 0.908633 5.125153 255 255 255
2.950529 -0.442442 5.287209 255 255 255
3.660524 -0.728850 5.512125 255 255 255
4.247101 -1.086995 5.414038 255 255 255
-2.473898 -0.368070 3.373612 255 255 255
3.428311 -0.408351 5.519819 255 255 255
4.917746 -1.614452 1.313489 255 255 255
8.136302 -1.630317 4.155089 255 255 255
9.123467 0.842626 0.837035 255 255 255
3.036601 0.551169 3.132927 255 255 255
3.039833 0.554072 3.138941 255 255 255
1.623261 -1.664182 5.231095 255 255 255
3.883616 -0.848738 5.487640 255 255 255
3.576384 -0.225746 5.500971 255 255 255
6.998643 -0.167372 5.460456 255 255 255
5.313022 -1.703668 3.183855 255 255 255
7.012296 -0.811399 5.457304 255 255 255
3.437369 -0.411709 5.526655 255 255 255
3.660573 -0.341472 5.499083 255 255 255
9.255874 -1.192432 4.061394 255 255 255
0.774400 -1.671302 3.575516 255 255 255
4.245355 -1.073798 5.409002 255 255 255
3.879195 -0.114276 5.491332 255 255 255
5.095410 -1.681623 1.617048 255 255 255
2.894774 0.545377 2.583392 255 255 255
6.641954 0.683516 0.563914 255 255 255
3.741703 -1.610840 2.456153 255 255 255
6.259088 -1.692190 4.116250 255 255 255
7.249528 -1.587610 3.675565 255 255 255
6.029927 0.905559 5.513406 255 255 255
8.248464 -0.979885 4.186971 255 255 255
5.101889 -1.596185 5.179320 255 255 255
6.205351 -1.689553 4.136805 255 255 255
7.195534 -1.655493 3.643736 255 255 255
0.467039 -1.680696 4.134640 255 255 255
6.595594 0.881330 0.662515 255 255 255
5.031057 0.971907 3.510218 255 255 255
6.711870 0.925101 3.636913 255 255 255
3.212603 -0.477555 5.505736 255 255 255
7.746457 0.670989 3.656212 255 255 255
2.990855 0.546256 3.097368 255 255 255
7.618180 -1.612611 1.345394 255 255 255
9.331973 0.906512 1.185438 255 255 255
6.481407 0.940506 1.991681 255 255 255
8.684810 -1.744673 5.242054 255 255 255
4.946611 -1.640189 2.418887 255 255 255
0.759053 -1.651698 3.609189 255 255 255
2.728612 -1.593366 5.174294 255 255 255
8.204112 -1.729938 4.733686 255 255 255
7.465434 -1.562764 4.152087 255 255 255
3.680920 -1.635840 3.261046 255 255 255
1.626310 -0.638956 5.357568 255 255 255
3.007165 -1.592227 2.403883 255 255 255
8.033859 0.758697 5.372288 255 255 255
3.917130 0.368058 2.872783 255 255 255
-0.638409 -1.745937 2.271294 255 255 255
7.431350 -1.672599 1.228092 255 255 255
4.611286 -0.586150 5.531046 255 255 255
4.608897 -0.834062 5.488448 255 255 255
3.702347 -1.645664 1.667381 255 255 255
2.335127 0.875258 -0.922680 255 255 255
4.915861 -1.619247 4.793627 255 255 255
-0.945865 0.994820 5.376908 255 255 255
0.652208 -1.634471 2.284847 255 255 255
3.577113 -0.856669 5.483951 255 255 255
3.666499 -0.343934 5.506731 255 255 255
5.959483 -1.594090 4.783340 255 255 255
8.871405 0.911745 2.508287 255 255 255
3.210700 -0.476986 5.514396 255 255 255
9.271661 -0.604894 0.868704 255 255 255
1.606701 -1.660789 5.313291 255 255 255
6.739527 -1.116074 5.488398 255 255 255
4.395114 -1.011495 5.452359 255 255 255
3.742849 -1.609700 2.454212 255 255 255
6.247277 -1.648177 0.970968 255 255 255
3.779120 -1.663999 0.464197 255 255 255
7.404665 -1.656693 5.310821 255 255 255
3.738402 -1.616121 2.431041 255 255 255
9.273483 0.077762 0.485284 255 255 255
7.262847 0.877157 3.600032 255 255 255
6.559440 -1.623521 4.372523 255 255 255
4.741731 -1.620107 4.667391 255 255 255
4.871033 -0.139807 5.508973 255 255 255
3.419651 -0.397849 5.510306 255 255 255
9.165668 0.102654 0.550394 255 255 255
4.022915 0.231796 2.823453 255 255 255
8.397978 -0.155159 5.586851 255 255 255
-0.489222 0.497517 2.835787 255 255 255
9.161747 0.654760 0.530765 255 255 255
2.744614 -0.128908 5.524576 255 255 255
3.671178 -0.876751 5.508538 255 255 255
1.058574 -1.623604 1.278878 255 255 255
0.538390 -0.634290 5.387808 255 255 255
0.393618 -1.689260 4.023688 255 255 255
-0.358885 -1.621497 2.317395 255 255 255
6.789449 0.257238 0.897345 255 255 255
4.145912 -1.615152 2.380290 255 255 255
9.436137 -1.912270 1.795263 255 255 255
3.188314 -0.583111 5.507094 255 255 255
3.288583 -1.000850 5.448739 255 255 255
6.818937 0.168660 3.486802 255 255 255
3.193907 -0.582654 5.507123 255 255 255
10.103047 -0.230423 3.902084 255 255 255
5.028851 -1.645709 2.409743 255 255 255
1.549099 -1.568517 4.141727 255 255 255
4.775755 0.914319 5.527761 255 255 255
5.260807 -0.231489 -0.799450 255 255 255
6.213373 -1.649761 5.310861 255 255 255
8.040992 -0.650026 4.919880 255 255 255
2.794427 -1.672590 4.118351 255 255 255
0.079277 -2.485687 -1.670162 255 255 255
6.547940 0.892559 1.949709 255 255 255
6.394954 -1.654435 4.096203 255 255 255
7.542133 -1.591470 3.102297 255 255 255
3.991305 -1.561282 3.977170 255 255 255
6.515937 -1.573511 4.400722 255 255 255
4.827442 -0.121578 5.450971 255 255 255
9.238070 0.826298 2.581588 255 255 255
6.430384 0.694604 1.966951 255 255 255
3.887824 -0.113077 5.491973 255 255 255
4.016815 -1.027125 5.474607 255 255 255
5.455101 -0.396013 5.501010 255 255 255
4.606165 -0.842532 5.489782 255 255 255
6.650679 0.150244 3.573085 255 255 255
2.502733 0.016489 5.530427 255 255 255
6.041812 -1.630752 4.793671 255 255 255
3.538702 0.441455 2.915818 255 255 255
3.576040 -0.868907 5.494714 255 255 255
6.549487 0.869911 2.011933 255 255 255
2.796737 -1.650612 2.340270 255 255 255
6.598133 0.338701 3.734761 255 255 255
4.334790 0.406091 2.925126 255 255 255
3.581949 -1.603109 3.578480 255 255 255
7.915950 -0.344940 -0.625480 255 255 255
8.521338 -1.747393 1.511001 255 255 255
3.125233 -0.850357 5.439591 255 255 255
6.549500 0.870411 1.972753 255 255 255
2.797786 -1.664485 5.313129 255 255 255
-0.230582 0.853138 5.084214 255 255 255
2.702540 -1.603546 5.044857 255 255 255
6.065458 -1.665944 4.791207 255 255 255
3.543720 -1.595196 2.310956 255 255 255
6.835429 0.879066 5.483644 255 255 255
7.253860 -1.656160 1.248674 255 255 255
-0.074740 -1.531554 2.406013 255 255 255
8.894592 -1.686420 2.335089 255 255 255
6.669217 0.861164 0.672871 255 255 255
6.733313 0.952336 3.611380 255 255 255
7.613309 0.416979 3.592021 255 255 255
8.059737 -0.545819 -0.637537 255 255 255
8.002358 0.965103 -0.935805 255 255 255
8.736671 -1.010680 5.637735 255 255 255
6.152401 -1.753467 3.588643 255 255 255
4.241049 -0.837737 5.426290 255 255 255
4.155488 0.914960 5.535361 255 255 255
4.716238 0.029763 5.452157 255 255 255
5.305173 -1.596581 4.377562 255 255 255
6.558338 0.892249 1.933945 255 255 255
5.036295 -1.599238 3.753016 255 255 255
1.289063 0.821723 5.265382 255 255 255
5.986114 -0.866171 5.477765 255 255 255
3.421386 -0.403757 5.518654 255 255 255
3.114644 -0.848924 5.442690 255 255 255
4.721225 0.022200 5.449015 255 255 255
3.583459 -1.535374 2.400685 255 255 255
7.499384 -1.577208 4.148578 255 255 255
7.283121 -1.667318 4.122985 255 255 255
2.724815 -1.601049 3.581702 255 255 255
0.207185 -2.017813 2.695195 255 255 255
5.038280 -1.607587 3.739103 255 255 255
6.829558 0.868223 -0.711985 255 255 255
3.871130 -1.648341 1.662696 255 255 255
6.588123 0.851092 3.729088 255 255 255
8.450596 0.756783 4.881609 255 255 255
7.267333 0.912641 4.010912 255 255 255
1.604885 -1.729630 3.705118 255 255 255
4.856106 -0.855013 5.481624 255 255 255
1.382125 -1.837910 4.037649 255 255 255
2.728776 -1.578330 4.121676 255 255 255
4.002145 -1.659055 4.120818 255 255 255
4.927285 0.913254 5.411574 255 255 255
3.656746 -1.643401 3.644656 255 255 255
6.616175 0.873193 0.666358 255 255 255
5.415206 -0.415351 5.495182 255 255 255
1.803528 -1.681078 3.621239 255 255 255
8.508891 -1.711542 1.576066 255 255 255
2.996500 0.530355 3.119058 255 255 255
7.105917 -1.610710 3.561763 255 255 255
3.188155 -0.491700 5.539702 255 255 255
7.286203 0.655175 0.440793 255 255 255
2.994653 0.701525 2.683115 255 255 255
6.118656 -1.023623 5.453413 255 255 255
4.004649 -1.664348 5.324965 255 255 255
4.538684 0.503230 5.041587 255 255 255
4.242606 -0.838407 5.428065 255 255 255
5.298582 -0.646204 5.502614 255 255 255
8.667963 -1.737911 4.087817 255 255 255
5.304077 -0.642980 5.499472 255 255 255
6.004529 -0.137388 5.515538 255 255 255
4.766579 -1.628698 3.560378 255 255 255
5.985958 -0.138575 5.499797 255 255 255
8.492043 0.902452 5.520946 255 255 255
8.516723 -1.701012 1.586402 255 255 255
9.336134 -1.629018 3.067746 255 255 255
2.581803 -1.657872 0.477788 255 255 255
3.908928 -1.596318 3.177358 255 255 255
3.061945 -1.705909 3.599230 255 255 255
3.982980 -1.665057 5.297350 255 255 255
4.996916 -1.555298 3.488132 255 255 255
8.976539 0.899740 3.570781 255 255 255
8.902252 -1.611066 4.371463 255 255 255
8.284669 0.758939 3.447558 255 255 255
4.477177 0.616677 3.163852 255 255 255
6.765992 0.088517 5.524206 255 255 255
7.182752 -1.546017 4.421762 255 255 255
4.239983 -1.107152 5.425179 255 255 255
2.692258 -1.615412 5.052592 255 255 255
2.888687 -1.678308 2.279648 255 255 255
4.396321 -1.017316 5.451391 255 255 255
4.925665 0.914027 5.411390 255 255 255
8.302519 -1.443727 5.193190 255 255 255
1.377258 -1.657303 0.465486 255 255 255
8.229978 0.883143 4.612779 255 255 255
7.306519 0.307944 3.686927 255 255 255
8.080763 0.299172 5.175602 255 255 255
6.578347 0.904981 5.518699 255 255 255
8.017302 0.907988 4.162988 255 255 255
6.327650 -1.667172 1.655448 255 255 255
6.051640 -1.611130 4.790753 255 255 255
2.497863 -1.628293 2.220227 255 255 255
9.120477 -0.067627 -0.166293 255 255 255
6.948986 -0.344757 -0.804920 255 255 255
4.670977 0.069423 5.566384 255 255 255
7.050901 0.736767 0.639124 255 255 255
-0.671774 0.483380 2.276785 255 255 255
8.108303 -0.676757 4.935305 255 255 255
0.041301 0.963273 5.295969 255 255 255
3.983221 -0.004508 5.485076 255 255 255
8.515863 -1.713331 0.443621 255 255 255
8.249387 -1.702520 2.269110 255 255 255
1.823827 -1.645829 3.262526 255 255 255
4.247117 -1.609604 3.296057 255 255 255
3.578286 -0.854832 5.487109 255 255 255
3.150408 -0.852478 5.433006 255 255 255
4.623137 -1.616330 2.387910 255 255 255
3.927994 -1.588045 3.152504 255 255 255
6.706963 -1.081604 5.492087 255 255 255
7.575826 0.884631 4.075743 255 255 255
3.924148 -1.592738 3.155196 255 255 255
2.785336 -0.860418 5.507409 255 255 255
4.607926 -1.614304 2.398542 255 255 255
4.172399 -0.283386 5.567181 255 255 255
1.665362 -1.699473 5.242189 255 255 255
6.682145 0.145682 3.597103 255 255 255
2.572055 -1.661282 0.460719 255 255 255
8.597313 -1.623981 2.667975 255 255 255
8.570585 -1.686850 4.135467 255 255 255
5.380918 -0.251875 5.500185 255 255 255
6.963551 -1.617655 1.214671 255 255 255
6.139411 -1.636915 1.273523 255 255 255
7.944262 0.869973 -0.698791 255 255 255
5.991614 -0.130285 5.489739 255 255 255
3.672009 -1.652914 1.653480 255 255 255
6.075683 -1.617650 1.771376 255 255 255
5.383785 0.908677 3.605590 255 255 255
3.887423 -1.604032 3.145534 255 255 255
5.131969 -1.658235 5.321800 255 255 255
6.412467 -1.623008 4.786098 255 255 255
3.568651 0.438744 2.951015 255 255 255
3.906456 -0.119704 5.461260 255 255 255
4.003646 0.031292 5.467228 255 255 255
7.141597 0.905079 4.212513 255 255 255
3.553018 -0.875282 5.507467 255 255 255
2.771356 -0.143664 5.516012 255 255 255
6.616009 0.913836 4.621225 255 255 255
8.273671 0.018213 5.483888 255 255 255
8.650390 -1.860952 3.484212 255 255 255
5.024491 -1.615155 4.218804 255 255 255
3.032502 0.690062 2.707403 255 255 255
5.040007 -1.618317 3.160644 255 255 255
9.270223 0.904026 4.183582 255 255 255
6.972864 -0.180163 5.458518 255 255 255
7.908205 -0.408732 -0.611818 255 255 255
2.741271 -1.575031 5.174004 255 255 255
6.550487 -1.562893 3.312134 255 255 255
4.238827 -0.846415 5.432035 255 255 255
6.214857 -1.657571 5.318506 255 255 255
3.918332 -0.113320 5.462840 255 255 255
9.062064 -0.480102 0.496630 255 255 255
7.567814 -1.656232 5.195796 255 255 255
9.248057 0.054401 4.088066 255 255 255
3.658762 -1.633331 3.273988 255 255 255
2.937140 -1.595208 5.238552 255 255 255
4.032638 0.038514 5.460425 255 255 255
7.507437 -1.690535 5.329273 255 255 255
