1.446770 0.488943 -0.317550 255 255 255
0.916432 0.432924 3.056816 255 255 255
0.864912 0.386360 3.032577 255 255 255
1.150429 0.581201 3.014386 255 255 255
2.423471 -1.547416 4.476178 255 255 255
2.433058 -0.498036 3.482045 255 255 255
1.941993 -1.196503 5.950541 255 255 255
2.161293 0.822650 4.366211 255 255 255
0.810940 -0.241967 4.850301 255 255 255
0.931862 0.378995 2.208082 255 255 255
-0.723711 -0.436378 -0.158403 255 255 255
-0.735225 -0.619831 -0.067801 255 255 255
0.894527 0.456118 0.817268 255 255 255
-0.698138 -0.398294 4.243189 255 255 255
-0.431211 0.064706 -0.792441 255 255 255
2.189176 0.245029 1.794408 255 255 255
2.113204 0.439466 1.822423 255 255 255
0.162181 0.727401 4.712955 255 255 255
1.353652 -1.485599 3.704569 255 255 255
-0.804065 0.110389 3.561783 255 255 255
1.717418 0.803018 2.493396 255 255 255
-0.386472 0.470496 1.853434 255 255 255
1.319535 -1.447360 3.360987 255 255 255
-0.782242 -0.232570 0.944834 255 255 255
-0.595049 0.438247 2.422455 255 255 255
2.233210 -1.674371 2.621092 255 255 255
-0.579006 0.771190 -0.786348 255 255 255
2.132411 0.172782 0.403517 255 255 255
0.413185 0.804681 4.205028 255 255 255
-0.585808 0.431400 2.391135 255 255 255
1.181658 0.539447 -0.503935 255 255 255
1.661809 0.295830 1.716086 255 255 255
1.504610 0.463175 -0.472250 255 255 255
-0.782688 0.117654 1.196577 255 255 255
0.705261 -1.473857 1.203420 255 255 255
1.080115 0.446944 0.853038 255 255 255
1.358228 0.472125 -0.480831 255 255 255
-0.630660 -0.282269 3.215008 255 255 255
2.099904 0.185119 0.375450 255 255 255
0.659721 -1.518276 0.840809 255 255 255
2.166023 0.087825 0.537333 255 255 255
2.482912 0.716519 4.801607 255 255 255
0.704246 -1.536413 0.797828 255 255 255
1.462721 0.848696 4.888772 255 255 255
0.808752 -0.438246 -0.790641 255 255 255
2.247686 -1.495608 4.188091 255 255 255
0.613157 0.490513 3.003332 255 255 255
1.058182 0.570535 -0.690295 255 255 255
2.151191 0.164164 0.668290 255 255 255
1.179463 0.437791 3.041478 255 255 255
-0.508425 -0.142940 -0.809886 255 255 255
2.379394 0.294274 3.296546 255 255 255
1.314719 -0.062752 -0.697499 255 255 255
-0.480472 -0.254396 3.311228 255 255 255
-0.787282 -0.005029 0.945214 255 255 255
2.205866 -0.145016 0.444431 255 255 255
2.143682 -1.620764 1.769473 255 255 255
1.776717 0.750091 4.783121 255 255 255
-0.782564 0.553308 0.944886 255 255 255
1.910452 -1.482013 1.389547 255 255 255
0.865395 -1.483021 2.320448 255 255 255
2.214236 0.253987 0.893188 255 255 255
2.385634 -0.307547 4.785950 255 255 255
1.125458 -1.507420 1.789537 255 255 255
-0.383339 0.464300 1.846304 255 255 255
0.284042 -1.559793 3.703336 255 255 255
-0.208662 -1.951207 4.413958 255 255 255
1.368497 0.461823 1.075176 255 255 255
0.289750 1.095998 5.145813 255 255 255
2.169787 0.226058 1.517705 255 255 255
1.563944 0.266976 3.045163 255 255 255
-0.186338 -1.639829 0.790806 255 255 255
-0.167570 0.000413 -0.443867 255 255 255
-0.723504 -0.179908 -0.113764 255 255 255
2.144126 -0.296517 4.368598 255 255 255
1.715335 0.440812 3.130057 255 255 255
2.004106 0.172622 -0.295447 255 255 255
-0.418779 0.769762 2.394767 255 255 255
1.663273 0.244900 0.610707 255 255 255
0.868440 -1.482484 2.315790 255 255 255
-0.733558 -0.392878 -0.228281 255 255 255
0.702173 0.794542 3.508501 255 255 255
2.079513 0.152193 0.997279 255 255 255
-0.209900 0.803783 1.445619 255 255 255
1.537853 -1.458681 3.789440 255 255 255
-0.765252 -0.835547 0.646929 255 255 255
-0.022415 -1.461488 2.172316 255 255 255
2.424223 -0.315303 2.332250 255 255 255
-0.928931 0.280041 4.624868 255 255 255
1.150565 0.437271 3.042134 255 255 255
1.924928 -1.490658 1.401880 255 255 255
0.867307 -1.487756 0.671539 255 255 255
-0.050408 -1.517252 1.773985 255 255 255
2.180651 -1.641997 3.439082 255 255 255
1.395898 -1.482702 2.741685 255 255 255
2.178128 -1.629750 1.762980 255 255 255
1.703020 0.274853 1.794436 255 255 255
2.425792 -0.342953 2.876443 255 255 255
1.063145 0.665409 1.647868 255 255 255
-0.752977 0.618631 2.486566 255 255 255
1.407213 -1.676011 2.764842 255 255 255
-0.711333 0.073007 3.137975 255 255 255
1.825741 -1.611730 4.779669 255 255 255
-0.427897 0.837111 2.789458 255 255 255
-0.388006 0.764152 2.586070 255 255 255
0.620406 0.777610 3.043333 255 255 255
0.865584 0.775814 3.507660 255 255 255
0.446383 -1.443425 3.189210 255 255 255
-0.782679 -0.261214 4.225822 255 255 255
0.876196 -1.496959 1.625974 255 255 255
2.254674 -0.348912 4.530120 255 255 255
-0.657478 -1.394261 -0.769629 255 255 255
2.429698 -0.413128 1.640462 255 255 255
1.725495 0.425963 3.347687 255 255 255
-0.766258 0.064932 0.713908 255 255 255
2.416488 -0.498839 2.623215 255 255 255
1.685743 -0.204981 4.703511 255 255 255
0.673146 0.512491 3.196040 255 255 255
2.023576 -0.475349 4.524789 255 255 255
0.633294 0.748828 3.337008 255 255 255
2.174777 -0.505580 4.833832 255 255 255
1.692880 0.361599 1.835956 255 255 255
-0.350092 0.520492 3.073231 255 255 255
0.952774 0.265952 2.606315 255 255 255
1.295492 0.158853 0.345242 255 255 255
2.406555 -1.547790 4.234632 255 255 255
-0.155225 -1.593586 2.015226 255 255 255
1.965851 0.481892 -0.212802 255 255 255
-0.781201 0.117059 1.199045 255 255 255
2.195781 0.228377 1.518151 255 255 255
0.282193 -1.758815 4.877655 255 255 255
-0.862917 -0.015116 3.852795 255 255 255
-0.332600 0.661666 4.619182 255 255 255
-0.278755 -1.369308 3.077940 255 255 255
1.292001 0.157893 0.350393 255 255 255
2.278514 0.244115 3.163432 255 255 255
1.251007 -1.411055 3.809374 255 255 255
2.095973 -0.473071 4.348001 255 255 255
-0.783976 -0.232804 0.943292 255 255 255
0.924843 -1.501621 2.207078 255 255 255
2.326730 -0.254566 4.734377 255 255 255
1.303480 0.155300 0.349423 255 255 255
0.451762 -1.410981 3.753747 255 255 255
0.615994 0.787092 3.025554 255 255 255
2.414068 -0.710254 2.075487 255 255 255
-0.727082 -0.750191 -0.245718 255 255 255
1.339418 0.450410 1.067086 255 255 255
0.679158 -1.499642 0.829847 255 255 255
2.418726 -0.509880 2.562245 255 255 255
0.653668 0.485418 1.837862 255 255 255
2.386223 -0.073003 -0.376236 255 255 255
1.578431 0.551229 -0.552535 255 255 255
-0.711803 -0.877306 1.445539 255 255 255
1.910726 -1.486471 0.835344 255 255 255
0.361017 -1.495057 4.324133 255 255 255
2.144992 -1.603208 1.818534 255 255 255
-0.206956 0.692184 4.818939 255 255 255
6.927817 -1.177192 4.735218 255 255 255
-0.752604 -0.637780 -0.279996 255 255 255
-0.718962 -0.483035 -0.066496 255 255 255
-0.733436 -0.628993 -0.078003 255 255 255
2.569409 -1.622240 4.487475 255 255 255
0.298317 0.760895 4.813748 255 255 255
1.726256 0.294914 3.288642 255 255 255
-0.415565 0.486121 3.103516 255 255 255
-0.784822 0.324144 0.941498 255 255 255
2.030254 0.301619 0.482820 255 255 255
-0.469043 0.600983 4.580954 255 255 255
0.661652 0.481151 3.325907 255 255 255
-0.756965 -0.416611 -0.237277 255 255 255
-0.756288 0.755849 3.404691 255 255 255
-0.744187 -0.159216 -0.197379 255 255 255
0.365824 -0.229448 4.780916 255 255 255
-0.443859 0.816404 2.156271 255 255 255
1.038761 0.779976 4.878673 255 255 255
-0.479946 0.445294 2.071951 255 255 255
-0.421509 0.801897 2.451571 255 255 255
1.635950 -0.364917 -0.542495 255 255 255
1.707668 0.444181 1.384299 255 255 255
2.025085 0.275501 1.614533 255 255 255
1.906189 -1.578040 0.431117 255 255 255
0.864244 0.391220 3.088196 255 255 255
2.184077 -1.641033 0.397916 255 255 255
-0.585282 0.430516 2.379463 255 255 255
-0.606291 -1.289443 0.614544 255 255 255
0.829355 0.164097 -0.450286 255 255 255
2.405873 -1.512876 4.238328 255 255 255
-0.798607 -0.855528 4.440803 255 255 255
-0.774012 0.199913 4.507125 255 255 255
-0.777745 -0.692109 0.939158 255 255 255
1.473584 -1.194756 4.867857 255 255 255
-0.705272 -0.872624 0.571827 255 255 255
-0.787671 -0.562200 0.791904 255 255 255
-0.346923 0.648552 2.666334 255 255 255
-0.577428 0.437877 2.029308 255 255 255
0.923646 -1.491405 1.692019 255 255 255
1.188326 0.502888 -0.350732 255 255 255
2.414542 -0.405498 2.425037 255 255 255
-0.152868 -1.557447 0.485074 255 255 255
-0.019868 -1.490735 2.202427 255 255 255
-0.671500 0.053510 2.516269 255 255 255
0.891558 -1.534187 1.405554 255 255 255
0.966254 0.355184 2.639100 255 255 255
0.785546 0.768566 4.809855 255 255 255
1.193346 0.543833 -0.505324 255 255 255
-0.205094 0.814009 -0.801143 255 255 255
2.292308 -0.548314 0.755286 255 255 255
-0.874407 -0.002805 4.295679 255 255 255
1.660009 0.267528 1.749911 255 255 255
2.149338 0.377714 -0.240564 255 255 255
2.130212 0.185653 -0.430841 255 255 255
-0.473413 0.801210 4.490002 255 255 255
-0.760737 -0.529853 3.439690 255 255 255
-0.584694 0.449923 2.512766 255 255 255
1.075850 -1.457313 1.808208 255 255 255
0.229780 0.778602 2.554649 255 255 255
1.477104 -0.946531 4.851981 255 255 255
1.045525 -1.492717 2.187530 255 255 255
2.015603 -0.257016 4.554540 255 255 255
-0.704047 0.242784 3.778501 255 255 255
2.375336 -0.392862 0.673901 255 255 255
2.107293 0.149983 0.760122 255 255 255
2.163186 -0.379164 0.943484 255 255 255
-0.414529 0.558590 2.887095 255 255 255
0.855070 -1.464694 1.203857 255 255 255
-0.510558 0.731657 3.658040 255 255 255
0.758122 0.421775 1.931823 255 255 255
-0.356886 -1.368856 4.042485 255 255 255
-0.400528 0.795002 2.757470 255 255 255
-0.323117 -0.558267 4.569735 255 255 255
0.839280 -0.076827 -0.461296 255 255 255
-0.871414 -0.004740 4.300854 255 255 255
1.028124 -1.476950 3.931443 255 255 255
0.979818 0.379756 2.100771 255 255 255
-0.784977 0.171760 1.224202 255 255 255
-0.134555 -1.503686 1.669618 255 255 255
-0.139337 -1.490867 2.341866 255 255 255
0.899246 -1.505927 0.417348 255 255 255
0.637166 0.547041 2.997814 255 255 255
1.861567 0.972543 5.218032 255 255 255
-0.763965 0.708539 4.812614 255 255 255
1.131993 -0.094890 -0.835736 255 255 255
-0.728822 -0.090789 -0.078633 255 255 255
1.533917 0.464682 -0.474317 255 255 255
-0.269738 -0.124751 4.500102 255 255 255
1.502616 -0.486561 4.882425 255 255 255
1.485251 -0.930347 4.847497 255 255 255
-0.784807 -0.400686 0.939755 255 255 255
0.945226 -1.461698 1.731355 255 255 255
2.049390 -0.047548 -0.083917 255 255 255
1.669820 0.782449 1.415822 255 255 255
2.202678 0.215392 1.515205 255 255 255
-0.474889 0.411291 2.986344 255 255 255
-0.508035 0.451672 2.130420 255 255 255
1.100054 -1.488484 0.837783 255 255 255
-0.397084 0.528663 2.977153 255 255 255
2.152908 -1.611687 2.601266 255 255 255
2.221016 0.220815 0.985803 255 255 255
-0.789044 -0.559176 1.210322 255 255 255
1.402509 -1.471786 2.738037 255 255 255
0.253975 0.796776 3.470311 255 255 255
-0.608303 0.456957 2.194459 255 255 255
-0.566890 0.259335 3.030706 255 255 255
0.622634 0.776777 3.061625 255 255 255
1.773225 0.441349 3.152622 255 255 255
-0.141597 -1.489772 0.678302 255 255 255
2.430727 -0.461680 1.710205 255 255 255
-0.778686 -0.696093 0.936399 255 255 255
-0.680074 0.455320 2.049949 255 255 255
-0.423061 0.578405 2.113072 255 255 255
2.240833 -0.150170 0.917153 255 255 255
-0.479843 0.454591 2.084293 255 255 255
2.009106 -0.057106 -0.731976 255 255 255
2.405804 -1.504998 3.683671 255 255 255
1.223356 -0.065442 -0.547867 255 255 255
2.160655 -1.622606 3.390446 255 255 255
0.844817 0.773074 -0.472929 255 255 255
2.232612 -0.158977 0.922832 255 255 255
0.347863 -1.477187 4.243399 255 255 255
1.174374 0.795990 3.033792 255 255 255
1.051514 -0.090653 -0.684929 255 255 255
1.760610 0.272973 3.237231 255 255 255
2.419031 -0.641762 3.608945 255 255 255
0.731669 -1.511947 1.821869 255 255 255
-0.121628 -1.522537 1.546964 255 255 255
-0.725762 -0.213708 -0.069340 255 255 255
1.240655 0.236557 -0.582608 255 255 255
0.758921 0.392600 2.438006 255 255 255
0.861380 -1.090542 4.868956 255 255 255
1.910455 0.555634 1.141096 255 255 255
2.418205 -0.405928 2.804776 255 255 255
2.095827 0.425454 1.411652 255 255 255
1.410953 0.795316 -0.552218 255 255 255
2.437401 -0.351078 1.557234 255 255 255
-0.784223 -0.552418 1.208427 255 255 255
2.155958 0.647069 -0.351451 255 255 255
2.428541 -0.550114 2.610497 255 255 255
-0.781534 -0.231656 1.180877 255 255 255
-0.832732 -0.245506 4.364724 255 255 255
1.170259 0.468789 3.042966 255 255 255
-0.682250 0.071642 1.836037 255 255 255
2.420961 -0.313559 2.894804 255 255 255
-0.694432 0.059702 3.104248 255 255 255
1.515191 -0.366620 -0.679391 255 255 255
2.206740 -0.366379 4.456076 255 255 255
-0.338527 0.514580 2.775389 255 255 255
-1.068584 -1.043192 4.235045 255 255 255
0.287185 -1.785223 4.890015 255 255 255
1.538520 -1.189137 4.876894 255 255 255
-0.787281 -0.401557 0.934519 255 255 255
-0.740648 -0.804372 1.359223 255 255 255
-0.736647 0.744117 1.545167 255 255 255
-0.785227 -0.005020 1.091241 255 255 255
1.083855 0.147123 -0.688445 255 255 255
0.861248 -1.197093 4.865288 255 255 255
0.854042 -1.549373 0.418431 255 255 255
-0.807195 -1.387389 4.857784 255 255 255
-0.779853 -0.375383 1.199309 255 255 255
2.101009 0.141933 0.689471 255 255 255
2.130202 -0.313138 0.045645 255 255 255
-0.164098 -1.411654 4.815825 255 255 255
0.838076 -1.597784 4.743722 255 255 255
-0.719302 -0.481790 -0.075823 255 255 255
1.958811 0.291643 3.406458 255 255 255
2.109699 0.028501 -0.466002 255 255 255
0.755884 0.375807 2.354762 255 255 255
1.099938 -0.097116 -0.770106 255 255 255
-0.788239 -0.402681 1.240738 255 255 255
-0.784567 0.323153 1.183645 255 255 255
0.851818 -1.190280 4.854506 255 255 255
-0.790787 -0.855343 4.435491 255 255 255
0.090616 0.789303 4.821362 255 255 255
-0.292179 -1.312827 4.035973 255 255 255
-3.044063 0.198094 11.494111 255 255 255
1.211869 0.239368 -0.565750 255 255 255
-0.321379 0.614382 2.332864 255 255 255
2.117766 0.495858 0.704841 255 255 255
-0.777943 -0.230824 0.946805 255 255 255
1.360994 -1.527619 4.645826 255 255 255
1.774435 0.438147 3.430866 255 255 255
1.699013 0.458377 2.739060 255 255 255
1.769482 0.272980 1.800384 255 255 255
2.161477 0.259487 1.672481 255 255 255
-0.784536 0.322844 1.180429 255 255 255
1.092737 -0.079024 -0.810894 255 255 255
-0.741641 -0.496866 -0.095226 255 255 255
-0.738811 0.063221 0.696295 255 255 255
-0.428772 0.491204 3.114700 255 255 255
-0.717210 -0.207942 -0.076561 255 255 255
-0.766583 -0.039368 5.090645 255 255 255
-0.588142 0.406329 2.046227 255 255 255
-0.497085 0.402691 2.665070 255 255 255
-0.875691 0.070286 3.958780 255 255 255
1.025725 -1.481300 2.181366 255 255 255
-0.157734 -1.565022 0.503148 255 255 255
-0.329520 -0.538427 4.546662 255 255 255
2.036305 -0.478614 4.544863 255 255 255
-0.276402 -1.397045 2.233245 255 255 255
2.036441 -1.445382 4.311932 255 255 255
1.756514 -0.236060 4.794913 255 255 255
-0.445955 0.146295 4.535580 255 255 255
0.947567 -1.575430 0.338076 255 255 255
2.071106 0.275390 -0.813010 255 255 255
-0.226118 -0.021987 -0.866087 255 255 255
-0.654276 -0.221149 3.069816 255 255 255
-0.786085 0.192201 1.062891 255 255 255
1.509307 0.213487 -0.574434 255 255 255
1.811122 0.472853 1.610265 255 255 255
-0.704984 0.710069 1.847960 255 255 255
-0.650583 0.056856 3.006362 255 255 255
2.400640 -0.426720 1.016180 255 255 255
-0.154049 -1.387596 0.417767 255 255 255
1.556806 0.697192 4.903967 255 255 255
2.149026 -1.614973 2.545912 255 255 255
1.161212 0.772602 1.752073 255 255 255
1.744135 0.697061 4.761194 255 255 255
2.014488 0.077972 0.968875 255 255 255
2.415331 -0.592764 3.414518 255 255 255
-0.788258 0.324045 0.938833 255 255 255
2.415915 -0.314941 2.329092 255 255 255
-0.525576 -0.024330 4.498889 255 255 255
-0.740703 0.746432 1.545902 255 255 255
0.347515 0.686806 4.701108 255 255 255
0.637284 0.678045 3.018263 255 255 255
2.373801 0.264908 0.765196 255 255 255
1.945521 -1.535776 0.490766 255 255 255
1.800052 0.452633 3.810673 255 255 255
-0.715784 -0.481847 -0.089004 255 255 255
1.261037 0.143634 0.389141 255 255 255
-0.744558 -0.666508 1.190013 255 255 255
2.412793 -0.645380 2.434372 255 255 255
-0.369357 -1.389358 0.513063 255 255 255
-0.202579 0.816327 -0.811929 255 255 255
0.347784 -1.484332 2.744484 255 255 255
-0.604712 0.456233 2.182427 255 255 255
-0.385246 0.777293 1.892909 255 255 255
2.410832 -0.732478 2.341780 255 255 255
0.484411 -1.503752 2.860492 255 255 255
2.391555 -0.638036 1.603975 255 255 255
0.157936 -1.479857 2.078246 255 255 255
2.423775 -0.313598 2.099266 255 255 255
2.035895 0.160423 0.395449 255 255 255
2.135446 -1.647035 1.761012 255 255 255
2.208285 0.219273 0.995184 255 255 255
1.508768 -0.057604 4.815657 255 255 255
2.208359 -1.463820 3.499207 255 255 255
0.867683 0.725233 4.842128 255 255 255
-0.494176 -0.376773 4.681954 255 255 255
1.742285 -1.524099 3.941350 255 255 255
0.636611 0.775030 3.026526 255 255 255
-0.784310 -0.019541 0.795547 255 255 255
2.382551 -0.678026 3.069833 255 255 255
-0.160449 -1.411637 0.392728 255 255 255
1.841954 0.599076 -0.631726 255 255 255
-0.193376 -1.640138 3.775311 255 255 255
1.355780 -1.496949 2.723528 255 255 255
-0.484461 0.135010 4.736144 255 255 255
-0.631762 0.057340 2.964390 255 255 255
1.130420 0.160927 -0.795148 255 255 255
-0.782188 0.436962 1.270167 255 255 255
0.091807 -0.207079 4.808002 255 255 255
1.057214 0.784185 4.897745 255 255 255
-0.403145 0.768517 3.013253 255 255 255
2.429209 -0.312853 2.333544 255 255 255
-0.714689 0.639336 1.452775 255 255 255
1.032911 -1.497408 1.818229 255 255 255
1.747557 -1.764294 4.849991 255 255 255
-0.597959 0.222247 4.510506 255 255 255
-0.780296 -0.646391 1.197120 255 255 255
1.143909 0.508009 3.028684 255 255 255
1.151158 0.431909 1.754541 255 255 255
1.758754 -1.490029 1.184970 255 255 255
1.409538 0.395232 0.979631 255 255 255
0.367956 0.770026 4.807093 255 255 255
0.920352 -1.490101 0.708445 255 255 255
-0.795449 -0.875781 4.484987 255 255 255
1.441192 -1.514103 3.247866 255 255 255
1.560459 1.489653 5.040620 255 255 255
-0.144483 -1.499822 1.673344 255 255 255
1.139559 0.428380 1.748783 255 255 255
2.399749 -0.622093 1.996038 255 255 255
0.877770 -1.508176 0.785442 255 255 255
-0.830199 -0.812291 4.411541 255 255 255
-0.744382 0.742366 1.550772 255 255 255
1.573786 -1.481577 4.211588 255 255 255
2.357875 0.267321 0.758623 255 255 255
0.375748 -1.549183 3.265163 255 255 255
-0.732835 -0.762484 -0.073210 255 255 255
2.405805 -0.638600 3.225392 255 255 255
-0.684206 0.069936 1.837528 255 255 255
-0.647112 -0.287951 3.449934 255 255 255
2.035899 -0.305873 -0.371307 255 255 255
2.400959 -0.632734 3.231237 255 255 255
-0.144685 -1.479311 2.328866 255 255 255
-0.656252 0.698066 3.150695 255 255 255
0.607657 0.762883 3.014547 255 255 255
-0.781867 -0.397469 1.241525 255 255 255
-0.131795 -1.488529 1.795509 255 255 255
0.859583 0.435062 2.890900 255 255 255
1.316029 0.777086 4.882993 255 255 255
0.925871 -1.497527 2.317643 255 255 255
1.992308 -0.259434 4.545303 255 255 255
-0.589253 0.425132 2.384550 255 255 255
-0.642973 -0.026835 3.336906 255 255 255
1.010334 -1.476282 1.202646 255 255 255
0.608806 0.463703 1.774164 255 255 255
1.694049 -0.301696 -0.136530 255 255 255
2.110130 -0.033283 0.245813 255 255 255
1.503487 0.748272 -0.447086 255 255 255
0.830454 -1.180664 4.817376 255 255 255
-0.421492 0.577936 2.296458 255 255 255
2.176226 -0.030055 0.499977 255 255 255
1.236212 -1.510560 2.845597 255 255 255
0.845792 -1.488848 0.856544 255 255 255
-0.135122 -1.486531 2.355020 255 255 255
1.741441 -1.479560 1.178968 255 255 255
-0.620489 0.432403 2.041184 255 255 255
0.942428 0.422857 2.630627 255 255 255
-0.448897 -0.347447 4.579157 255 255 255
2.417328 -1.506757 2.841523 255 255 255
-0.434127 0.440282 2.512379 255 255 255
-0.650658 -0.266248 3.772899 255 255 255
2.418985 -0.593353 2.615611 255 255 255
1.360196 -1.518870 4.647430 255 255 255
1.374943 -0.091847 -0.735910 255 255 255
0.970032 -1.586354 0.430599 255 255 255
2.084351 -0.045420 -0.110577 255 255 255
1.392750 0.458291 1.065118 255 255 255
0.497994 0.767808 -0.813733 255 255 255
-0.697939 0.112369 1.431186 255 255 255
0.460989 -1.483928 2.868598 255 255 255
1.704359 0.347941 3.318934 255 255 255
0.503347 -1.396825 -0.824602 255 255 255
-0.727017 -0.900476 1.059711 255 255 255
-0.366698 -0.178799 4.698684 255 255 255
-0.727885 -1.261907 3.413425 255 255 255
-0.272771 -1.380671 3.134129 255 255 255
-0.600298 0.428909 2.888360 255 255 255
0.354185 -1.533393 3.690767 255 255 255
-0.581717 0.401843 2.838422 255 255 255
1.569645 0.530854 -0.508962 255 255 255
1.143413 0.152204 -1.161944 255 255 255
1.185733 -1.484991 3.217540 255 255 255
-0.815557 -0.604933 3.563629 255 255 255
2.064762 0.559149 3.770236 255 255 255
2.184350 0.205405 1.354609 255 255 255
0.481498 0.574859 5.621624 255 255 255
0.445135 -1.450913 3.183085 255 255 255
-0.480893 0.045483 3.803694 255 255 255
1.012951 -1.466325 1.211269 255 255 255
0.977937 0.370241 2.101478 255 255 255
0.830985 0.254605 2.799596 255 255 255
2.161423 -0.075802 0.670762 255 255 255
1.024897 -1.483684 2.180029 255 255 255
-0.744526 0.067884 0.699614 255 255 255
-0.137563 -1.530254 1.552031 255 255 255
-0.246563 -0.064272 4.555979 255 255 255
1.090753 -1.500203 2.180707 255 255 255
1.896908 -1.539670 1.533197 255 255 255
0.091148 -0.207964 4.811649 255 255 255
0.176265 -0.233174 4.763937 255 255 255
2.116932 -0.500977 -0.181702 255 255 255
0.906891 -0.077983 -0.646901 255 255 255
-0.611264 -0.502746 3.270535 255 255 255
0.745579 0.432138 1.929145 255 255 255
1.015356 0.740474 -0.499562 255 255 255
1.122344 -1.507071 0.822037 255 255 255
1.398442 -0.022866 -0.487375 255 255 255
0.665679 0.786952 3.373093 255 255 255
2.402357 -0.431444 1.039929 255 255 255
2.184629 -0.460500 0.012542 255 255 255
1.156131 -0.246995 4.738583 255 255 255
2.177947 0.044271 0.524359 255 255 255
0.835339 -0.410857 -0.427291 255 255 255
1.880276 0.370180 3.052141 255 255 255
1.011161 0.780090 -0.509561 255 255 255
0.098023 -0.205510 4.817487 255 255 255
1.209093 0.768564 -0.515562 255 255 255
2.416994 -0.399476 2.813806 255 255 255
-0.389063 0.526209 2.195690 255 255 255
0.289914 -0.144298 4.392365 255 255 255
2.425164 0.713969 4.773963 255 255 255
0.782074 0.764979 4.818320 255 255 255
0.921521 -1.491040 0.829574 255 255 255
-0.421960 0.565093 2.920775 255 255 255
0.821761 -1.545714 0.457814 255 255 255
2.413529 -0.721482 2.095740 255 255 255
-0.718274 0.818830 -0.799698 255 255 255
0.837369 -1.449573 2.206880 255 255 255
3.118631 -1.947415 3.856103 255 255 255
1.689816 -1.514969 3.146460 255 255 255
2.090112 0.066792 1.496476 255 255 255
-0.419751 -0.355335 4.496541 255 255 255
-0.255804 -2.465647 5.591646 255 255 255
2.052590 0.023214 3.656186 255 255 255
0.100032 0.797875 4.847228 255 255 255
-0.784656 -0.008763 1.223890 255 255 255
1.144891 0.524969 -0.472819 255 255 255
-0.327128 -0.616752 4.667770 255 255 255
-0.376170 -0.107210 4.712409 255 255 255
2.186362 -0.280421 4.360599 255 255 255
-0.685875 0.036392 1.858707 255 255 255
-0.706171 -0.208282 -0.070949 255 255 255
-0.632999 0.435628 2.709833 255 255 255
-0.439481 0.634400 1.818779 255 255 255
2.361851 -1.503007 3.383242 255 255 255
-0.408473 0.815903 2.786745 255 255 255
-0.545490 0.464324 2.580649 255 255 255
2.405437 -0.641356 2.810737 255 255 255
-0.611350 0.408794 1.985851 255 255 255
1.999421 -0.252700 4.540359 255 255 255
1.021402 -1.486333 2.177422 255 255 255
0.616395 0.781848 3.047042 255 255 255
2.145639 -0.040464 0.510628 255 255 255
-0.163567 -1.533896 1.550888 255 255 255
0.608544 0.774575 3.029051 255 255 255
0.888179 -1.384463 2.157507 255 255 255
2.413308 -0.414361 2.798994 255 255 255
1.014981 0.755132 0.802783 255 255 255
0.752655 0.400945 2.852549 255 255 255
1.313324 0.558319 -0.568641 255 255 255
2.162066 0.445538 2.278488 255 255 255
1.396531 0.202594 -0.493127 255 255 255
2.100652 -1.578540 3.368974 255 255 255
0.889549 0.402229 2.751710 255 255 255
-0.661366 -0.307959 3.441169 255 255 255
0.655588 -1.516178 3.130610 255 255 255
2.139751 -1.621939 1.777748 255 255 255
0.766182 0.389797 2.448773 255 255 255
1.490438 -0.493214 4.866344 255 255 255
-0.715520 0.127884 1.414099 255 255 255
0.930876 -1.493827 1.387971 255 255 255
-0.639670 0.440602 2.718624 255 255 255
1.536811 -0.027438 4.920851 255 255 255
0.631152 -1.517265 2.955939 255 255 255
-0.643802 -0.285698 3.337821 255 255 255
1.828282 0.473378 1.267089 255 255 255
0.950696 -1.509437 0.705712 255 255 255
2.150260 -0.034506 0.517149 255 255 255
0.334117 -0.986409 4.815528 255 255 255
1.311957 -1.540719 4.637645 255 255 255
2.076053 -0.158129 -0.322142 255 255 255
2.092844 0.238431 1.380186 255 255 255
0.751694 0.374239 2.436987 255 255 255
1.518011 0.233165 1.303431 255 255 255
2.382170 -1.500813 3.828228 255 255 255
1.099537 0.424320 0.952873 255 255 255
-0.128693 -1.670166 4.805226 255 255 255
1.618763 0.546879 -0.596960 255 255 255
-0.678071 -0.025908 4.560377 255 255 255
1.123446 0.161900 -0.423750 255 255 255
2.420051 -0.719634 2.884684 255 255 255
2.408187 -0.456754 3.322151 255 255 255
-0.409052 -0.551166 4.707389 255 255 255
-0.812574 0.743376 3.615386 255 255 255
-0.722335 -1.351135 0.522216 255 255 255
2.119815 0.536030 0.975409 255 255 255
2.473117 -0.806115 3.855825 255 255 255
1.450457 -1.423682 3.169530 255 255 255
2.416674 -1.641318 4.709097 255 255 255
0.838910 0.774397 -0.465319 255 255 255
1.149253 0.284548 -0.592753 255 255 255
-0.613439 0.412786 2.026198 255 255 255
-0.574649 -0.110418 4.439366 255 255 255
-0.738638 -1.274128 1.539433 255 255 255
-0.702398 0.477640 1.852881 255 255 255
-0.689963 0.754703 0.577457 255 255 255
1.890829 0.512184 3.920331 255 255 255
-0.807637 -1.385963 1.535789 255 255 255
2.031189 -0.028530 3.605225 255 255 255
1.813859 0.170362 0.480642 255 255 255
2.074214 -1.555277 3.361792 255 255 255
2.052084 0.465372 3.514049 255 255 255
0.893459 -1.491780 0.416601 255 255 255
1.259915 -0.369782 -0.628889 255 255 255
-0.570794 0.417914 2.884561 255 255 255
1.534847 -1.503673 3.833042 255 255 255
0.813137 0.418682 2.840007 255 255 255
1.768021 0.310017 3.317838 255 255 255
2.441773 -0.495708 3.511429 255 255 255
2.145338 -1.385450 3.649781 255 255 255
1.818427 -1.473590 0.847899 255 255 255
2.486164 0.271120 0.716749 255 255 255
0.615122 0.548111 2.966027 255 255 255
0.292519 0.774037 4.794660 255 255 255
0.463541 -1.479497 2.850394 255 255 255
0.854909 -1.474077 1.380966 255 255 255
1.204344 -0.353685 -0.559190 255 255 255
2.105449 0.783689 4.447598 255 255 255
-0.735385 -0.805120 1.364676 255 255 255
0.344455 -1.495064 3.348924 255 255 255
2.422160 -0.309044 2.100252 255 255 255
-0.377003 -0.020099 4.433490 255 255 255
0.800946 0.430532 2.928585 255 255 255
-0.338678 -0.647778 4.724088 255 255 255
1.371437 -1.632205 4.749358 255 255 255
-0.709327 0.762875 0.487524 255 255 255
-0.280350 0.527350 4.385335 255 255 255
2.250160 0.149138 3.171880 255 255 255
0.835479 0.383209 2.488545 255 255 255
0.798321 0.429222 2.927135 255 255 255
2.434183 -1.651416 0.407174 255 255 255
-0.363516 -1.356738 3.069892 255 255 255
1.830824 -1.671640 4.789771 255 255 255
-0.798855 0.761137 3.422233 255 255 255
1.888293 0.175114 0.410801 255 255 255
1.153364 0.531723 -0.480495 255 255 255
2.249625 0.262222 3.166515 255 255 255
0.768685 -1.502450 1.808156 255 255 255
2.355942 -1.488577 2.709246 255 255 255
0.795876 0.433485 2.901954 255 255 255
0.948302 0.340179 2.114113 255 255 255
2.199557 -0.036763 0.486546 255 255 255
-0.502129 0.114296 4.782737 255 255 255
0.665020 0.827524 4.930966 255 255 255
1.214211 -1.529377 3.191036 255 255 255
1.685046 0.245353 0.596984 255 255 255
0.527989 0.806816 3.593093 255 255 255
2.038088 0.195628 0.271936 255 255 255
0.853839 -1.468574 1.210509 255 255 255
1.375695 -1.516355 3.377260 255 255 255
2.145139 -0.132522 -0.433360 255 255 255
0.835445 -1.007741 4.922034 255 255 255
0.914750 0.329603 2.594814 255 255 255
0.867447 0.270680 2.760398 255 255 255
2.405088 -1.503674 3.828873 255 255 255
0.600387 0.756013 3.002230 255 255 255
0.288873 0.785370 1.377508 255 255 255
0.335731 0.067045 4.800000 255 255 255
0.651191 0.695226 3.008560 255 255 255
-0.681214 -0.662386 3.096378 255 255 255
-0.393999 -1.456560 2.125202 255 255 255
0.859995 -1.474162 1.346428 255 255 255
0.326003 -1.482450 4.690629 255 255 255
-0.418852 0.502233 3.135537 255 255 255
1.696200 0.379460 1.074609 255 255 255
-0.413070 0.555352 2.717093 255 255 255
2.027974 0.527815 1.174857 255 255 255
-0.861827 -0.182777 -0.328839 255 255 255
1.321287 -1.583831 4.676600 255 255 255
0.851380 -1.459883 1.215561 255 255 255
1.999574 0.219404 -0.731759 255 255 255
0.846482 0.431003 2.866301 255 255 255
1.004667 -1.583190 4.020972 255 255 255
-0.611615 0.441156 1.970436 255 255 255
1.115566 0.422643 0.769202 255 255 255
2.224392 0.137745 2.716453 255 255 255
1.307946 0.239358 -0.616971 255 255 255
2.425306 -0.325391 1.550334 255 255 255
1.780560 0.458263 1.609143 255 255 255
1.806854 -1.631353 4.770993 255 255 255
-0.390293 0.544793 2.731487 255 255 255
-0.678896 0.246058 4.482460 255 255 255
0.701158 0.803505 3.398894 255 255 255
2.179456 -0.240478 -0.534115 255 255 255
0.850025 0.379952 2.724827 255 255 255
1.360116 0.573969 -0.716238 255 255 255
2.091322 0.474641 0.733045 255 255 255
0.941641 0.344102 2.281958 255 255 255
2.119548 -1.586108 2.606534 255 255 255
1.297910 -1.499646 3.596327 255 255 255
1.023334 0.385717 2.347656 255 255 255
0.868519 -0.091261 -0.731616 255 255 255
2.405750 -0.421144 3.251501 255 255 255
-0.747176 0.840438 -0.862898 255 255 255
-0.386009 -1.418712 3.129117 255 255 255
0.427313 -1.052226 5.735978 255 255 255
2.076924 -0.207395 0.379378 255 255 255
-0.768979 -0.005865 1.097386 255 255 255
1.366180 0.447207 1.078218 255 255 255
1.958467 0.259543 1.494403 255 255 255
2.387604 -1.534806 3.510712 255 255 255
-0.498265 0.033779 4.307550 255 255 255
2.404423 -0.638464 2.431147 255 255 255
-0.189685 -1.393075 4.873051 255 255 255
2.421668 -0.403485 2.815173 255 255 255
1.242278 0.180352 0.424424 255 255 255
0.968588 -1.485055 1.697397 255 255 255
-0.463560 0.571912 2.744259 255 255 255
1.756635 0.511958 3.819888 255 255 255
0.012388 0.823908 3.241493 255 255 255
2.424219 -1.652611 0.424332 255 255 255
1.667315 0.718175 1.617726 255 255 255
0.863473 0.798720 3.507073 255 255 255
0.729183 -1.538830 1.800348 255 255 255
1.629677 0.646531 1.744032 255 255 255
2.049263 -0.196420 -0.362408 255 255 255
2.033132 -0.027625 3.606185 255 255 255
1.051743 0.778188 4.789050 255 255 255
2.193265 -1.607583 2.559156 255 255 255
-0.689425 0.045434 2.395711 255 255 255
-0.192298 0.701053 4.818821 255 255 255
0.337969 -0.976319 4.805997 255 255 255
1.393669 0.842704 4.831494 255 255 255
1.116276 -1.500198 0.827045 255 255 255
-0.189576 -1.454146 4.826315 255 255 255
1.503227 0.284326 -0.554293 255 255 255
-0.317204 -0.603299 4.613745 255 255 255
0.845188 0.429948 2.737565 255 255 255
2.120884 0.142782 0.448246 255 255 255
2.440312 -0.514530 1.932141 255 255 255
1.173527 0.755861 1.772398 255 255 255
2.414428 -0.489174 3.366196 255 255 255
1.395502 0.404019 1.063195 255 255 255
-0.229121 -0.136426 4.530705 255 255 255
-0.369106 0.606181 4.602552 255 255 255
-0.425192 0.799485 4.467122 255 255 255
1.194290 -1.494319 4.164516 255 255 255
2.243049 -0.053292 0.899467 255 255 255
0.791918 0.435857 2.903362 255 255 255
2.225935 0.244194 0.879525 255 255 255
2.155430 -1.618288 3.400136 255 255 255
2.411744 -0.543621 3.483332 255 255 255
0.899478 0.310719 2.594223 255 255 255
1.767498 0.463776 3.414239 255 255 255
0.924094 0.408859 2.660800 255 255 255
0.887298 -1.526343 1.366385 255 255 255
1.410406 -1.527906 3.648129 255 255 255
0.037360 0.809673 4.088898 255 255 255
2.421918 -0.311713 2.097660 255 255 255
1.378400 -1.528741 3.228510 255 255 255
-0.363864 0.770679 3.065132 255 255 255
-0.743913 0.694716 4.790685 255 255 255
2.432312 0.730113 4.787812 255 255 255
1.154980 0.029939 -0.603172 255 255 255
2.116893 0.309910 0.384626 255 255 255
-0.745202 -1.316376 1.520243 255 255 255
-0.329583 -0.051382 4.587313 255 255 255
1.515882 -0.078481 -0.500279 255 255 255
-0.713606 -0.872634 0.575304 255 255 255
1.907791 -1.523571 1.552083 255 255 255
2.415848 -0.513670 1.721232 255 255 255
1.333121 -1.474265 3.702527 255 255 255
1.307904 -1.465324 2.724020 255 255 255
1.354492 -1.610296 4.711982 255 255 255
1.716181 -0.011157 -0.713272 255 255 255
1.844631 -1.567836 0.857099 255 255 255
1.004011 0.398896 2.253372 255 255 255
1.637588 -0.870984 5.124727 255 255 255
2.406714 -0.647336 2.421429 255 255 255
0.247224 0.783233 3.453687 255 255 255
1.349880 -1.501177 3.652496 255 255 255
0.904339 -1.505053 1.378833 255 255 255
-0.812959 -0.881341 3.632921 255 255 255
-0.681574 -0.658933 1.843689 255 255 255
0.865293 -1.489761 1.642311 255 255 255
0.849522 -0.963976 4.878992 255 255 255
1.992492 -0.269190 4.538202 255 255 255
-0.839606 0.066623 3.754010 255 255 255
-0.616318 -0.034642 4.956425 255 255 255
-0.806470 0.723587 3.596028 255 255 255
-0.783091 -0.263739 3.614549 255 255 255
-0.183518 -1.384092 4.864020 255 255 255
0.625925 0.765620 3.033489 255 255 255
-0.690105 -0.668739 1.834231 255 255 255
-0.130029 -1.654902 4.785149 255 255 255
1.435461 0.215805 -0.278309 255 255 255
2.228376 0.454774 1.142515 255 255 255
0.325612 -1.181513 4.831848 255 255 255
0.873492 -1.498154 1.637592 255 255 255
-0.708019 -0.236425 3.503194 255 255 255
1.069097 0.228932 4.872683 255 255 255
1.049081 0.785288 4.881998 255 255 255
1.794750 0.761877 4.781937 255 255 255
2.285944 -0.556841 0.922493 255 255 255
0.509215 0.769057 3.487851 255 255 255
1.371200 -0.081170 -0.730711 255 255 255
0.849853 0.428522 2.740620 255 255 255
-0.813350 -0.880885 3.630915 255 255 255
2.087470 -0.435832 1.043177 255 255 255
2.517473 0.567656 3.787813 255 255 255
0.855513 -1.439040 2.284500 255 255 255
2.083661 0.168850 0.718761 255 255 255
0.864620 0.427500 2.895898 255 255 255
0.934426 -1.516137 1.671051 255 255 255
1.973596 -0.099577 -0.659346 255 255 255
2.413285 -0.647850 3.612681 255 255 255
0.311564 -0.875744 -0.787056 255 255 255
0.348888 -1.512215 3.662668 255 255 255
-0.775754 -0.881349 1.443358 255 255 255
1.381402 -1.496190 4.649964 255 255 255
2.196840 0.142043 -0.487963 255 255 255
1.996873 0.104544 -0.104115 255 255 255
2.141554 -0.478115 4.380431 255 255 255
0.198088 0.740285 4.807313 255 255 255
0.339123 0.779430 4.836552 255 255 255
1.684371 0.226699 0.597073 255 255 255
0.849448 0.425448 2.775235 255 255 255
2.080348 -0.397095 0.700301 255 255 255
1.836302 0.702990 3.414025 255 255 255
0.752493 -1.480071 0.839637 255 255 255
2.136027 -0.045603 0.506611 255 255 255
0.851637 0.397474 2.789662 255 255 255
1.534404 0.759753 5.073089 255 255 255
1.768823 0.771504 3.836984 255 255 255
2.103897 -0.426951 1.060641 255 255 255
-0.716680 0.783244 0.473479 255 255 255
-0.704431 0.493874 3.101064 255 255 255
-0.243623 -1.283558 4.031253 255 255 255
2.410950 -0.332462 2.879553 255 255 255
2.138695 -0.034054 0.538417 255 255 255
1.304341 0.549534 -0.597517 255 255 255
1.049463 0.741400 -0.376681 255 255 255
2.132259 0.136053 -0.294603 255 255 255
1.979944 -0.376542 -0.686825 255 255 255
2.449514 0.523789 1.018223 255 255 255
1.222878 0.225419 -0.455439 255 255 255
-0.681700 -0.662945 3.097589 255 255 255
0.089357 0.791043 4.812005 255 255 255
0.578344 0.291386 4.853971 255 255 255
-0.757389 0.685836 0.545346 255 255 255
0.348811 -1.505084 4.337433 255 255 255
2.453665 -1.652655 3.018669 255 255 255
2.426843 -0.305695 3.138434 255 255 255
2.338068 0.509930 1.075668 255 255 255
0.272443 -0.243493 4.825483 255 255 255
1.229782 -1.551833 4.200040 255 255 255
1.486402 0.849053 4.887862 255 255 255
-0.691426 -0.662727 1.836071 255 255 255
-0.754067 -0.868106 1.448149 255 255 255
-0.256798 0.010396 4.526086 255 255 255
2.071054 0.300929 0.372927 255 255 255
0.681679 -0.240767 4.862966 255 255 255
2.246052 0.872943 4.595878 255 255 255
1.723679 0.297794 3.303659 255 255 255
1.509007 -0.010742 4.880349 255 255 255
0.827193 0.407401 2.727672 255 255 255
-0.483042 0.792131 4.479460 255 255 255
1.483989 -1.191734 4.877302 255 255 255
-0.477343 0.794880 4.493813 255 255 255
2.403549 -1.489336 2.714293 255 255 255
0.869439 -1.443899 1.601637 255 255 255
0.172003 -1.529208 1.893257 255 255 255
-0.812959 -0.802855 3.708626 255 255 255
-0.543125 0.440575 2.377830 255 255 255
-0.410975 -0.450961 4.583920 255 255 255
2.439052 -0.662854 1.584495 255 255 255
1.769204 0.300762 3.327216 255 255 255
0.912166 0.442452 2.666351 255 255 255
1.047913 0.789222 4.902668 255 255 255
2.075585 -0.100980 1.019728 255 255 255
-0.415212 -0.514087 4.659317 255 255 255
1.880771 0.720574 3.432946 255 255 255
0.305125 -1.546594 3.672100 255 255 255
1.681542 0.795129 3.508584 255 255 255
0.649437 0.513464 3.021688 255 255 255
2.413258 -0.729625 3.131971 255 255 255
0.854395 0.263745 2.742032 255 255 255
-0.739134 -0.876145 1.413165 255 255 255
0.855580 -1.472757 2.179721 255 255 255
1.329771 -1.465797 3.232798 255 255 255
1.564680 0.004809 4.872749 255 255 255
-0.411735 -0.459200 4.581458 255 255 255
0.842960 0.100539 4.836893 255 255 255
0.309870 -1.491523 2.724380 255 255 255
-0.405435 0.551396 2.722826 255 255 255
0.467921 0.764067 4.815656 255 255 255
1.999491 0.527203 -0.498751 255 255 255
1.415788 -1.494712 3.649413 255 255 255
2.057990 0.001339 3.644314 255 255 255
-0.441494 0.151870 4.541337 255 255 255
1.832589 0.712350 3.410432 255 255 255
0.426435 -1.545577 2.832880 255 255 255
1.101111 0.587928 -0.791552 255 255 255
-0.244823 -0.130399 4.535455 255 255 255
1.922934 -0.032017 0.154334 255 255 255
1.753091 0.295872 3.313231 255 255 255
2.428380 0.722570 4.781459 255 255 255
1.505412 -0.016534 4.870827 255 255 255
-0.636005 0.708101 3.128494 255 255 255
1.626687 0.256486 -0.650551 255 255 255
-0.347326 -1.303623 4.005172 255 255 255
1.907642 -1.476404 1.403243 255 255 255
1.359178 -1.501344 3.423515 255 255 255
1.019479 0.539516 -0.541179 255 255 255
0.339907 -1.464447 2.713071 255 255 255
2.052606 -0.523349 4.522151 255 255 255
-0.280412 -0.138511 4.662740 255 255 255
1.803414 0.347096 3.141715 255 255 255
0.783722 -1.427119 2.214371 255 255 255
0.848291 -1.507017 0.711020 255 255 255
-0.779525 -1.363931 3.433291 255 255 255
-0.464017 -0.145312 4.450333 255 255 255
2.436249 -0.410319 2.029902 255 255 255
-0.370670 -1.371005 2.225416 255 255 255
2.079262 -1.539930 2.640180 255 255 255
-0.359984 0.663054 4.698937 255 255 255
1.689276 0.783386 3.517866 255 255 255
1.036434 -1.489323 3.933980 255 255 255
2.359207 -1.655832 4.764540 255 255 255
1.214509 -0.019024 -0.610290 255 255 255
0.936721 -1.485047 1.707033 255 255 255
-0.414402 0.798308 3.057274 255 255 255
0.245474 0.801584 1.383710 255 255 255
-0.657571 -0.266258 3.204912 255 255 255
-0.653643 0.016561 3.348117 255 255 255
0.946397 -1.512492 1.675812 255 255 255
0.746846 0.428758 1.937393 255 255 255
2.415992 -0.571063 3.479439 255 255 255
1.084147 -1.459937 1.835943 255 255 255
0.858363 0.353749 2.866618 255 255 255
2.039596 -0.023360 3.613786 255 255 255
2.176860 0.173839 2.265846 255 255 255
0.886315 0.553927 -0.517970 255 255 255
1.855584 -1.496538 1.433239 255 255 255
2.383402 -1.504569 4.363285 255 255 255
0.630477 0.761061 4.777008 255 255 255
5.972700 -1.212284 4.470627 255 255 255
-0.696306 -0.674712 3.119596 255 255 255
-0.331397 -0.644134 4.717165 255 255 255
-0.790758 -1.376354 3.428221 255 255 255
-0.331006 -0.099356 4.472021 255 255 255
2.412750 -0.640822 3.611360 255 255 255
-0.699035 0.308814 4.480412 255 255 255
0.831303 0.434908 2.934019 255 255 255
1.033625 -1.502622 2.971482 255 255 255
1.429667 -1.489512 2.731914 255 255 255
0.085690 0.783334 4.823065 255 255 255
2.082613 -0.103271 0.989227 255 255 255
1.946527 -1.484858 2.343462 255 255 255
1.940498 0.511971 1.612829 255 255 255
2.178673 0.104768 0.495681 255 255 255
0.634909 0.491816 3.020691 255 255 255
2.413844 -0.561975 3.480803 255 255 255
0.838816 0.259976 2.749607 255 255 255
1.352315 -1.488212 2.719370 255 255 255
0.852733 -1.459072 2.323900 255 255 255
1.092295 -1.467180 1.838712 255 255 255
2.440873 -1.658859 0.403650 255 255 255
1.761320 0.514586 3.810140 255 255 255
1.598580 0.399983 1.735176 255 255 255
1.795390 0.766172 4.790110 255 255 255
2.419584 -0.455659 1.746439 255 255 255
-0.260845 -0.565049 4.592103 255 255 255
0.822791 0.436476 2.935632 255 255 255
1.695226 0.461371 2.730815 255 255 255
1.558995 -0.759043 4.971119 255 255 255
-0.807186 -0.026609 0.767980 255 255 255
0.800562 0.460005 2.746854 255 255 255
0.309090 -1.550131 3.679897 255 255 255
-0.353990 0.798461 4.547094 255 255 255
1.163767 -1.495596 2.863412 255 255 255
2.415125 -0.488745 3.374327 255 255 255
-0.383202 -1.433399 4.097751 255 255 255
2.420469 -1.647877 4.716197 255 255 255
1.991957 -1.474487 2.976646 255 255 255
2.157166 -0.496518 4.367757 255 255 255
1.433328 -1.499031 3.657864 255 255 255
-0.319511 -0.628670 4.689558 255 255 255
1.641158 0.398785 1.678177 255 255 255
-0.844059 0.777029 4.909564 255 255 255
1.352713 -1.497789 3.843020 255 255 255
-0.783398 -0.862830 0.617767 255 255 255
1.321030 -1.453825 4.374369 255 255 255
-0.815546 -0.802278 3.708388 255 255 255
2.010227 -1.611628 0.413426 255 255 255
-0.638503 0.002858 3.339037 255 255 255
2.064063 0.016754 3.653928 255 255 255
-0.237253 0.006115 4.516212 255 255 255
1.664606 0.227156 -0.725036 255 255 255
1.711879 0.438453 1.398589 255 255 255
-0.216281 -1.544779 1.288324 255 255 255
1.495389 -0.618771 4.878584 255 255 255
-0.638566 0.002976 3.338553 255 255 255
1.106470 -1.474240 0.879492 255 255 255
-0.856080 -0.015683 3.848423 255 255 255
0.904362 -1.510662 0.425870 255 255 255
1.131186 0.810573 4.853520 255 255 255
-0.648272 0.517248 1.669662 255 255 255
1.830846 -0.052312 -0.539824 255 255 255
1.238032 -0.356692 -0.580447 255 255 255
1.432455 -0.530032 4.821651 255 255 255
0.704437 -1.455320 2.191253 255 255 255
1.156785 0.479863 3.055195 255 255 255
0.369046 -0.240671 4.813507 255 255 255
2.219725 -1.438708 4.268023 255 255 255
-0.112864 -1.480235 1.659000 255 255 255
2.413192 -0.724736 3.695686 255 255 255
-0.635258 -0.610093 2.428431 255 255 255
2.075458 -0.421564 -0.424420 255 255 255
0.947488 -1.479107 1.426474 255 255 255
2.399104 -1.531720 4.487857 255 255 255
2.398926 -0.697513 3.188290 255 255 255
0.755863 0.423117 1.957175 255 255 255
-0.559036 0.459621 2.569146 255 255 255
0.766265 0.395724 2.266200 255 255 255
0.265010 0.776851 1.474538 255 255 255
0.314353 -1.260106 4.844634 255 255 255
2.306224 0.044463 1.274198 255 255 255
-0.667568 0.045451 2.482253 255 255 255
1.406016 -1.462771 3.786582 255 255 255
2.153786 0.092164 0.453585 255 255 255
1.778239 0.476014 3.636840 255 255 255
0.572788 0.287702 4.830696 255 255 255
-0.383233 0.777273 2.480545 255 255 255
-0.163136 -1.633636 4.701158 255 255 255
1.691739 0.161826 0.528314 255 255 255
2.120816 0.440550 1.846802 255 255 255
-0.795399 -0.277989 3.610132 255 255 255
0.242397 0.825790 3.986055 255 255 255
-0.163289 -1.634354 4.691145 255 255 255
0.571108 0.771935 4.833230 255 255 255
2.076791 -1.533719 2.650024 255 255 255
2.604447 -1.655655 3.703405 255 255 255
-0.768965 0.716887 4.773195 255 255 255
1.135077 0.782355 3.532023 255 255 255
-0.453393 0.044340 4.591426 255 255 255
-0.413355 -0.459078 4.588295 255 255 255
2.256717 0.293339 1.384059 255 255 255
2.414553 -0.401341 3.613798 255 255 255
0.776957 0.756056 4.782834 255 255 255
0.409132 -1.420077 3.381686 255 255 255
2.042369 -0.040107 3.681225 255 255 255
2.149825 -0.284418 4.347827 255 255 255
0.512738 0.743239 4.766198 255 255 255
1.191380 0.545329 3.062174 255 255 255
0.427206 0.820797 4.808658 255 255 255
2.416697 -0.724957 2.362052 255 255 255
0.605334 -1.435887 3.163898 255 255 255
-0.183216 -1.321763 4.859138 255 255 255
-0.811306 0.090205 3.750156 255 255 255
1.972209 0.244601 1.440641 255 255 255
1.781910 0.449676 1.369944 255 255 255
0.646125 0.457403 1.724288 255 255 255
1.739297 0.154041 0.636517 255 255 255
2.438210 -0.464932 3.335611 255 255 255
2.231424 0.867309 4.600760 255 255 255
2.420708 -0.322908 2.339963 255 255 255
2.140326 0.798778 4.395196 255 255 255
1.165447 -1.525164 4.221169 255 255 255
-0.492900 0.827750 3.635192 255 255 255
-0.162771 -1.597615 0.780468 255 255 255
-0.837412 0.166206 3.968536 255 255 255
-0.247917 0.006030 4.523468 255 255 255
0.373091 0.756848 -0.817167 255 255 255
0.300133 -0.858520 -0.789003 255 255 255
1.555692 -0.073239 -0.463387 255 255 255
1.438713 -1.585291 4.660687 255 255 255
-0.270848 0.010591 4.544434 255 255 255
1.742695 0.808582 3.636642 255 255 255
-0.298119 -1.409983 3.172783 255 255 255
-0.409471 0.012970 4.502389 255 255 255
-0.439705 -0.138906 4.560046 255 255 255
2.015011 -0.038938 3.549114 255 255 255
-0.365209 -1.373567 3.154150 255 255 255
0.931065 -1.477377 2.238569 255 255 255
0.482077 -1.531651 3.204013 255 255 255
1.224929 0.534481 -0.586295 255 255 255
-0.576776 -0.283311 3.242278 255 255 255
1.787497 -1.472199 2.201486 255 255 255
-0.863691 0.543367 3.848802 255 255 255
0.467108 0.771987 4.824929 255 255 255
2.156314 -1.340966 4.285929 255 255 255
-0.152159 -1.519496 1.757395 255 255 255
-0.619460 -0.280414 3.448456 255 255 255
-0.303590 -1.383085 3.099257 255 255 255
0.829506 0.429081 2.862659 255 255 255
2.405563 -0.405629 1.995546 255 255 255
1.774953 0.137406 0.368869 255 255 255
0.946506 0.400091 2.133368 255 255 255
2.401569 -1.486737 3.684040 255 255 255
2.419256 -0.318500 3.697393 255 255 255
0.932270 -1.461837 1.428620 255 255 255
0.367048 -0.236327 4.803130 255 255 255
2.178726 -0.032780 0.485462 255 255 255
0.677977 0.765755 4.794654 255 255 255
-0.408869 -1.445974 1.246802 255 255 255
2.381468 -0.703570 3.599630 255 255 255
0.785614 0.772374 4.806472 255 255 255
0.807980 -0.154968 1.944765 255 255 255
0.678216 -1.493701 1.811106 255 255 255
1.758884 0.450370 3.152566 255 255 255
-0.681039 -1.298301 2.846342 255 255 255
2.411678 0.314072 3.278257 255 255 255
2.407424 -1.501434 3.824859 255 255 255
1.950813 0.243856 1.502098 255 255 255
0.319312 -1.537277 3.212097 255 255 255
0.854772 0.792386 3.501090 255 255 255
1.873407 -1.472815 1.327130 255 255 255
0.311917 -1.489364 2.697917 255 255 255
1.683334 0.790232 3.518216 255 255 255
1.141155 0.673600 1.615360 255 255 255
2.088636 0.435727 3.571118 255 255 255
1.911576 0.500306 0.601747 255 255 255
1.549390 -1.471246 2.862177 255 255 255
-0.607366 -0.276021 3.462783 255 255 255
2.125782 -0.043218 0.522749 255 255 255
-0.666904 -0.029205 4.585036 255 255 255
1.568696 -1.090286 4.960823 255 255 255
-0.540588 -0.460051 3.293818 255 255 255
2.057658 -0.482683 4.541593 255 255 255
-0.161627 0.043598 4.813315 255 255 255
0.610182 0.785193 3.039125 255 255 255
0.863106 -1.473233 1.708908 255 255 255
0.282144 -0.848774 -0.807556 255 255 255
1.898986 0.537491 4.111907 255 255 255
0.885884 0.738236 4.825933 255 255 255
1.701342 -0.055125 -0.675835 255 255 255
2.419080 -0.322725 3.150940 255 255 255
2.054501 0.018118 3.656086 255 255 255
2.156884 0.294069 0.142585 255 255 255
1.803291 0.812504 3.200237 255 255 255
-0.404319 -0.448857 4.586261 255 255 255
2.230337 0.221838 1.500850 255 255 255
-0.686246 0.505231 3.094572 255 255 255
0.665248 -0.239415 4.826765 255 255 255
2.406686 -0.633624 2.008394 255 255 255
2.062593 0.276146 3.538859 255 255 255
0.273662 -0.531100 -0.807089 255 255 255
-0.741856 -0.094730 -0.251467 255 255 255
1.770617 0.775815 3.815392 255 255 255
-0.139813 -1.494749 1.222411 255 255 255
0.548237 -1.498427 4.206783 255 255 255
-0.462863 0.766818 3.038104 255 255 255
-0.759247 -0.006602 1.094607 255 255 255
1.838581 0.275417 3.223235 255 255 255
2.294803 0.678495 4.545501 255 255 255
-0.132671 -1.492615 1.794291 255 255 255
-0.778031 0.002328 4.470482 255 255 255
-0.127482 -1.493117 1.367429 255 255 255
2.102961 -0.437909 1.034282 255 255 255
-0.443052 -0.534724 4.714403 255 255 255
1.694275 -0.692855 5.072002 255 255 255
2.033330 -0.023774 3.630623 255 255 255
-0.162980 -1.581197 1.329087 255 255 255
-0.750361 -0.827219 0.645377 255 255 255
0.659762 0.455438 1.756172 255 255 255
2.391706 -0.620972 3.251738 255 255 255
1.988867 0.552357 0.462518 255 255 255
1.168279 0.761005 3.039993 255 255 255
0.764815 0.359781 2.855417 255 255 255
-0.613954 -0.468812 3.441397 255 255 255
2.413626 -0.387603 3.219784 255 255 255
1.044143 0.451601 0.870848 255 255 255
-0.502271 -0.159669 4.529769 255 255 255
1.713184 -0.080067 -0.733044 255 255 255
1.352939 -1.488823 3.837085 255 255 255
0.622107 0.784328 1.745788 255 255 255
2.078752 -0.390962 1.006370 255 255 255
0.282269 -0.519317 -0.710794 255 255 255
1.575493 -0.989640 4.863806 255 255 255
