1.294926 -1.273556 3.957870 255 255 255
2.660568 0.685059 2.910910 255 255 255
-0.731390 0.768195 0.620738 255 255 255
1.498595 -1.560816 0.852360 255 255 255
2.875090 0.261707 2.603884 255 255 255
-0.749142 -1.312077 0.488839 255 255 255
1.260004 0.737176 4.552778 255 255 255
0.485256 -1.454086 3.974520 255 255 255
-0.767568 0.020442 4.514391 255 255 255
1.121341 -1.464598 3.170927 255 255 255
2.721900 0.353689 2.732516 255 255 255
-0.645434 -0.624433 1.733066 255 255 255
1.428062 0.241126 -0.569744 255 255 255
3.195106 -1.443923 2.665948 255 255 255
4.219359 -0.466843 2.362245 255 255 255
2.675969 0.439829 1.721687 255 255 255
2.341138 -1.533709 4.625723 255 255 255
0.974839 -1.544575 1.217248 255 255 255
-0.451702 -0.207044 3.091715 255 255 255
3.665019 0.243141 3.055923 255 255 255
1.988562 -1.543473 3.042521 255 255 255
1.523771 -1.544606 4.061706 255 255 255
2.723204 0.700315 0.612624 255 255 255
-0.764418 0.191430 4.235083 255 255 255
1.158041 -0.062035 -0.733720 255 255 255
-0.145150 -1.451906 0.475431 255 255 255
1.875656 0.727993 4.530820 255 255 255
-4.723149 -4.966548 5.258698 255 255 255
-0.779282 -0.003315 0.957665 255 255 255
-0.168725 0.719985 4.558913 255 255 255
2.211522 -1.375351 3.619733 255 255 255
2.547057 -0.606144 4.595894 255 255 255
-0.265661 0.025529 4.591319 255 255 255
2.700572 -1.552752 3.052684 255 255 255
-0.778833 -1.351799 4.682164 255 255 255
3.272122 -0.021318 4.065155 255 255 255
4.162181 0.133372 2.953986 255 255 255
-0.630692 -0.608187 1.764627 255 255 255
3.277660 0.672221 3.228671 255 255 255
3.343054 -1.520348 0.713891 255 255 255
4.161425 0.144644 2.992900 255 255 255
2.946182 0.277773 2.476516 255 255 255
1.600474 -0.052839 -0.713605 255 255 255
1.393909 -1.503740 2.734449 255 255 255
2.673959 0.739485 2.877384 255 255 255
0.875769 -0.254430 4.521852 255 255 255
4.193168 -0.424165 3.125049 255 255 255
-0.693510 -0.690440 -0.196564 255 255 255
3.321493 0.225144 3.974862 255 255 255
3.984997 0.082976 0.523726 255 255 255
1.413318 0.713864 -0.580161 255 255 255
3.941376 0.393863 0.235013 255 255 255
4.210116 -0.395241 2.300004 255 255 255
1.963309 0.159178 -0.513607 255 255 255
2.184112 -1.524932 2.709552 255 255 255
2.721815 -0.851823 4.536550 255 255 255
-0.471331 0.455210 2.699921 255 255 255
0.472707 -1.541521 2.882051 255 255 255
-0.828440 -0.009756 4.045247 255 255 255
0.853724 -1.509732 2.029565 255 255 255
1.408301 0.706604 -0.541809 255 255 255
2.120590 -1.345283 3.864524 255 255 255
2.498831 -1.555866 3.039208 255 255 255
-0.586404 0.252241 2.587596 255 255 255
-0.650225 -0.627762 2.929659 255 255 255
1.063353 -1.482979 3.061033 255 255 255
1.726058 -1.307816 3.700269 255 255 255
3.137824 -1.591700 2.953910 255 255 255
3.433832 -1.481135 4.604782 255 255 255
0.501048 0.759095 2.587733 255 255 255
1.913565 -1.556664 1.650778 255 255 255
1.603623 -0.319253 4.529512 255 255 255
1.580985 -0.070962 -0.675268 255 255 255
1.846432 -1.440516 0.429651 255 255 255
2.688925 -0.595851 -0.768353 255 255 255
2.664878 -0.034735 -0.671980 255 255 255
0.020104 -1.440941 1.983484 255 255 255
4.207119 -1.402024 2.561253 255 255 255
3.941270 0.287595 3.171769 255 255 255
0.342396 -1.442104 3.963102 255 255 255
2.201835 -1.499887 2.650363 255 255 255
4.214296 0.222640 3.056381 255 255 255
3.407066 0.742220 1.389860 255 255 255
3.127482 0.421784 4.061553 255 255 255
3.648982 -0.848067 4.537628 255 255 255
1.556249 -0.037946 -0.608392 255 255 255
-0.395762 0.640256 4.584302 255 255 255
-0.346809 -1.360826 0.380909 255 255 255
3.780455 -1.434325 0.488293 255 255 255
1.293731 -1.402127 4.383127 255 255 255
-0.833269 -0.506493 3.615757 255 255 255
4.217696 -0.689683 2.727122 255 255 255
3.214014 0.755346 1.340130 255 255 255
3.116912 0.422809 4.061065 255 255 255
-0.871783 -1.524054 0.379035 255 255 255
0.494957 -1.456962 3.968249 255 255 255
2.645313 -0.235593 4.097382 255 255 255
3.271276 -1.542825 2.675024 255 255 255
2.368067 -1.429545 3.509782 255 255 255
-0.823111 0.771830 4.182671 255 255 255
2.783941 0.376628 2.123774 255 255 255
3.641391 -1.449875 1.799230 255 255 255
1.411088 -1.424242 3.663955 255 255 255
-0.771472 -0.299154 4.522944 255 255 255
-0.755783 -0.188505 4.547089 255 255 255
3.019119 -1.449008 2.140482 255 255 255
0.961486 0.448923 0.822949 255 255 255
2.955338 0.527701 4.145743 255 255 255
3.417704 -1.426955 0.792354 255 255 255
3.981784 -0.412979 0.988095 255 255 255
4.140855 -1.489879 3.355090 255 255 255
3.143755 0.420039 4.232044 255 255 255
1.684330 -1.496903 1.296043 255 255 255
2.398217 -1.412596 4.074859 255 255 255
4.209308 -1.422636 3.503639 255 255 255
1.334139 -1.469704 2.583481 255 255 255
0.938391 -1.519971 1.262259 255 255 255
2.345115 -1.464078 4.345978 255 255 255
-0.494449 0.338850 2.722421 255 255 255
2.084105 -1.414833 3.104903 255 255 255
1.360546 -1.721452 4.231994 255 255 255
2.957258 -0.700267 4.585662 255 255 255
2.563267 -0.606927 4.618288 255 255 255
1.178471 -1.550155 2.626015 255 255 255
2.149983 -1.424263 2.737283 255 255 255
0.289890 -1.393885 4.383925 255 255 255
2.828094 -0.112009 4.620344 255 255 255
0.321272 -1.407717 2.549247 255 255 255
-0.422058 0.579086 2.827288 255 255 255
4.215421 -0.297094 3.503446 255 255 255
1.772248 -1.460264 0.418149 255 255 255
-0.355096 0.587916 4.378904 255 255 255
1.738931 -1.504509 3.893372 255 255 255
3.347618 0.061341 4.033964 255 255 255
0.335466 -1.442158 3.970587 255 255 255
-0.328811 0.689287 4.425104 255 255 255
1.149288 0.798634 4.632752 255 255 255
0.283822 -1.463097 3.519864 255 255 255
0.946022 -0.758722 5.127403 255 255 255
1.725859 -1.497754 1.315320 255 255 255
4.166477 -1.349610 0.467883 255 255 255
4.192764 0.222423 2.932191 255 255 255
-0.756796 0.027345 4.548583 255 255 255
0.860562 0.763718 2.885882 255 255 255
4.199193 -0.289881 2.976362 255 255 255
4.038769 -0.583713 1.222527 255 255 255
2.159698 -1.477134 1.730489 255 255 255
2.630732 -1.565417 1.763888 255 255 255
1.137718 -1.564485 1.750998 255 255 255
-0.465722 0.450429 2.680638 255 255 255
2.830706 0.401966 2.792044 255 255 255
0.808333 -1.513793 1.296398 255 255 255
0.858164 -1.520006 1.570972 255 255 255
2.336277 -1.510060 4.618904 255 255 255
0.850434 -1.511461 1.108478 255 255 255
0.280262 -1.515396 3.546224 255 255 255
4.224241 -0.476746 3.313519 255 255 255
-0.227653 -2.175305 1.246032 255 255 255
0.051997 0.748894 4.566105 255 255 255
1.360073 -1.420273 3.157755 255 255 255
3.045955 0.455474 4.221707 255 255 255
1.187530 -1.600342 4.511485 255 255 255
0.864211 0.774362 2.793063 255 255 255
-0.148675 0.063695 4.562576 255 255 255
-0.157447 -1.525177 1.196027 255 255 255
4.193955 -0.372919 3.430646 255 255 255
2.724560 -0.373879 4.595777 255 255 255
2.654973 -0.876543 4.511688 255 255 255
1.592190 -0.345366 -0.655450 255 255 255
1.019261 -1.510324 0.954596 255 255 255
1.973251 0.047615 4.517501 255 255 255
2.859322 -1.454667 2.159916 255 255 255
1.159333 -1.596452 0.871535 255 255 255
1.840900 -1.555009 2.180924 255 255 255
-0.173411 0.724778 4.558993 255 255 255
4.241993 0.241391 0.989148 255 255 255
3.539057 -0.699342 4.488767 255 255 255
3.668389 -1.501436 1.715506 255 255 255
2.797510 -1.492784 1.589341 255 255 255
3.523637 -1.403129 0.914990 255 255 255
1.734396 -1.483983 1.601370 255 255 255
2.001699 -0.668883 4.540124 255 255 255
-0.647500 -0.620521 1.741688 255 255 255
-0.770830 0.094111 3.556554 255 255 255
1.029685 0.089862 3.669738 255 255 255
3.406366 -1.320823 1.706001 255 255 255
0.635134 -1.492556 1.305448 255 255 255
2.969632 -1.092487 1.980587 255 255 255
4.199200 -0.614146 3.431336 255 255 255
3.773256 -1.577123 1.652665 255 255 255
2.181879 -1.602002 2.797217 255 255 255
2.370610 -1.599832 2.672873 255 255 255
-0.700971 -0.434729 3.082227 255 255 255
1.897654 -0.747890 -0.706575 255 255 255
1.441109 -0.297662 -0.602964 255 255 255
-0.168764 -1.460791 1.639089 255 255 255
1.329311 -1.412712 3.597375 255 255 255
-0.686358 -0.169966 -0.167208 255 255 255
-0.662710 -0.734948 1.287769 255 255 255
3.343233 0.428327 0.988611 255 255 255
2.717463 -1.481561 2.135890 255 255 255
4.183659 -1.269465 2.479086 255 255 255
4.240040 0.658640 3.117747 255 255 255
2.181375 -1.452377 3.923973 255 255 255
3.363283 0.628574 4.626550 255 255 255
1.918546 -1.505241 4.504015 255 255 255
-0.006473 -1.529597 4.500570 255 255 255
3.832880 -1.499705 3.276758 255 255 255
2.853927 0.352636 2.615250 255 255 255
3.069346 0.095379 0.626189 255 255 255
-0.162972 -0.032476 4.565270 255 255 255
3.523376 -0.687734 4.507065 255 255 255
1.315723 -1.610276 3.616784 255 255 255
0.873116 0.785109 2.791421 255 255 255
1.418501 -1.464941 3.981522 255 255 255
1.407150 -1.492062 3.241773 255 255 255
3.601165 -0.863709 4.505752 255 255 255
3.311855 -1.385636 3.601077 255 255 255
1.881119 -1.629202 1.055334 255 255 255
3.000285 -0.366651 4.618337 255 255 255
4.094273 -1.568255 0.496853 255 255 255
1.679030 -1.553506 3.891340 255 255 255
2.810206 0.343838 2.694922 255 255 255
2.957563 0.401661 2.560364 255 255 255
4.117351 -1.469756 2.581724 255 255 255
-0.127143 -0.051454 4.559309 255 255 255
0.914253 -1.482238 0.421845 255 255 255
3.258798 -1.438771 2.642920 255 255 255
-0.806391 0.160276 4.175425 255 255 255
0.567627 -1.570042 1.793904 255 255 255
2.788932 -1.470321 1.614725 255 255 255
1.023943 -1.502868 0.954299 255 255 255
1.896771 0.836417 4.543414 255 255 255
-0.043724 -0.530116 4.545425 255 255 255
1.060897 -1.481504 1.715125 255 255 255
3.119523 -1.390083 2.764632 255 255 255
0.013532 -1.565936 4.533701 255 255 255
1.210467 -0.332709 -0.533405 255 255 255
0.866349 0.234933 4.198626 255 255 255
3.830207 -1.425941 0.392556 255 255 255
2.058965 0.711903 4.555226 255 255 255
4.205987 -0.604593 1.564787 255 255 255
3.140461 -1.442640 0.878292 255 255 255
0.925375 -1.492057 1.575557 255 255 255
1.124108 -1.527884 0.783192 255 255 255
4.205952 0.753963 4.596736 255 255 255
0.046004 -1.616054 4.544186 255 255 255
-0.771249 -0.756512 3.497858 255 255 255
-0.104695 -0.045720 4.544797 255 255 255
3.589338 -1.496610 1.720946 255 255 255
3.958236 0.389309 1.774201 255 255 255
0.612040 -1.450213 2.046537 255 255 255
0.356756 -1.493225 1.794301 255 255 255
1.204303 -1.569073 2.625706 255 255 255
2.930382 -1.419146 1.620833 255 255 255
4.215975 0.209248 1.109686 255 255 255
0.899205 -1.371728 4.003312 255 255 255
0.853007 0.789787 1.806510 255 255 255
-0.416380 -0.155867 4.380144 255 255 255
-0.776124 0.289844 4.387102 255 255 255
4.201870 -0.309980 2.730128 255 255 255
1.279721 0.520709 -0.638415 255 255 255
1.378897 -1.457833 3.675100 255 255 255
3.447657 -0.994636 4.488140 255 255 255
2.671588 0.407276 2.857487 255 255 255
-0.779186 0.087311 3.519684 255 255 255
-0.003766 -0.786524 4.547934 255 255 255
2.416296 -1.445271 3.672324 255 255 255
2.179624 -1.462866 4.081458 255 255 255
4.214092 -0.397358 2.670849 255 255 255
-0.075425 -1.127148 4.634877 255 255 255
-0.774968 0.731742 3.499668 255 255 255
2.952587 -1.416305 2.867214 255 255 255
2.846034 -1.552544 1.279417 255 255 255
2.962555 -1.393824 3.025030 255 255 255
2.612874 -1.433268 3.968129 255 255 255
2.546025 -1.447655 2.010594 255 255 255
0.053295 -1.502874 4.463761 255 255 255
3.107109 -1.547512 2.008789 255 255 255
2.852749 0.305474 2.519285 255 255 255
1.232663 -1.384362 4.013373 255 255 255
1.933699 -1.636407 4.528662 255 255 255
1.746612 -1.547617 0.915032 255 255 255
2.129666 -1.265913 0.816162 255 255 255
2.671694 -1.425946 2.167193 255 255 255
2.938244 -1.443796 2.859562 255 255 255
3.143812 0.497243 2.823692 255 255 255
1.979347 -1.478733 1.309741 255 255 255
1.461846 -1.653435 4.525576 255 255 255
-0.754886 0.088278 3.482917 255 255 255
-0.781855 0.696910 4.638824 255 255 255
2.648049 0.453308 2.906279 255 255 255
0.879831 -1.547361 1.561778 255 255 255
0.839482 -1.615725 0.699618 255 255 255
0.257080 -1.451852 4.385055 255 255 255
-0.658723 0.474719 2.924436 255 255 255
2.572950 -1.534627 2.672131 255 255 255
1.367286 -1.546091 3.033880 255 255 255
0.200632 0.739136 4.433827 255 255 255
4.202684 -0.403324 2.381429 255 255 255
1.426210 -1.604138 2.784358 255 255 255
4.252774 -1.617018 4.091370 255 255 255
2.647815 0.727615 2.885178 255 255 255
0.649259 -1.543169 1.556990 255 255 255
2.658681 -0.890199 4.514267 255 255 255
-0.039430 -1.127846 4.672919 255 255 255
0.313356 -1.438688 4.436904 255 255 255
-0.776258 -0.756899 3.502505 255 255 255
0.828414 0.474519 0.761627 255 255 255
4.216910 -0.407324 0.987238 255 255 255
4.255074 -0.407679 1.454299 255 255 255
0.127333 -1.555892 3.498148 255 255 255
3.027720 -1.407096 1.761545 255 255 255
-0.592828 -0.266112 3.141835 255 255 255
0.452894 -1.441923 2.034327 255 255 255
0.480981 -1.456464 3.976424 255 255 255
-0.200142 -1.504921 4.545180 255 255 255
3.303056 -1.548027 4.427992 255 255 255
-0.772997 -0.037546 3.311908 255 255 255
0.709764 0.777365 3.115582 255 255 255
1.283736 -1.703354 3.728499 255 255 255
-0.134399 -1.464933 0.469095 255 255 255
1.050913 -1.553560 1.953850 255 255 255
2.037808 -1.399873 3.521937 255 255 255
0.314488 -1.395326 4.073209 255 255 255
1.930752 -1.465019 1.783855 255 255 255
1.799241 -0.819456 4.710371 255 255 255
2.573929 -1.509490 3.268283 255 255 255
0.639075 -1.502755 1.300796 255 255 255
0.280393 -1.457220 3.520988 255 255 255
1.358121 -1.439746 3.984519 255 255 255
0.492074 -1.567019 1.645401 255 255 255
-0.801608 0.096592 3.531634 255 255 255
2.420471 -0.797490 4.413934 255 255 255
0.364889 -1.433569 4.325164 255 255 255
2.246857 -1.534958 2.799930 255 255 255
-0.747790 0.292773 4.281429 255 255 255
-0.002809 -1.542903 1.861645 255 255 255
2.849471 -1.556884 1.232847 255 255 255
2.773578 -1.573392 3.909289 255 255 255
2.208934 -1.564551 1.730753 255 255 255
4.160233 -1.552856 2.190150 255 255 255
2.967480 -0.679994 4.562526 255 255 255
-0.527461 0.415086 1.930239 255 255 255
2.567402 -1.507098 3.567847 255 255 255
2.481514 -1.510958 2.714200 255 255 255
0.359194 -0.436462 4.518812 255 255 255
0.839666 -1.442491 0.422392 255 255 255
-0.460309 0.776693 3.428916 255 255 255
4.205348 -0.701333 2.729899 255 255 255
3.522495 -0.685271 4.508896 255 255 255
0.701097 -1.386216 1.826046 255 255 255
1.941437 -1.466777 1.314751 255 255 255
2.878330 -1.515843 1.299864 255 255 255
0.643771 -1.512824 1.273465 255 255 255
0.749003 -1.549082 2.074520 255 255 255
2.616021 -0.258077 4.198514 255 255 255
-0.646747 -0.626456 1.736719 255 255 255
2.933321 -0.169976 4.628418 255 255 255
3.993925 -1.505445 2.201707 255 255 255
4.197013 -1.358544 3.162313 255 255 255
1.441503 -1.515483 2.587713 255 255 255
1.895773 -1.448957 1.812084 255 255 255
3.253550 -1.444252 2.638193 255 255 255
1.490771 -1.515617 3.737415 255 255 255
2.314459 0.779116 2.727185 255 255 255
0.785494 -1.780841 0.266305 255 255 255
0.894092 -1.453566 1.362380 255 255 255
-0.767090 -0.776754 4.197456 255 255 255
4.128080 -0.460957 0.873582 255 255 255
3.573816 -1.544667 2.723418 255 255 255
-0.739248 -0.438456 4.609667 255 255 255
3.241464 -1.447199 2.717104 255 255 255
1.984498 -1.543209 1.663370 255 255 255
0.812831 -1.421378 1.652432 255 255 255
3.759304 0.140282 4.618503 255 255 255
0.751599 -1.553315 2.064634 255 255 255
0.832764 0.489321 0.757870 255 255 255
1.849893 -1.384053 1.392689 255 255 255
2.353438 -1.447353 3.953267 255 255 255
-0.352690 -1.302082 2.097738 255 255 255
3.898906 0.745087 3.993633 255 255 255
2.836247 -0.703616 4.532043 255 255 255
3.614558 -1.557582 3.069461 255 255 255
4.187367 -0.554468 1.943673 255 255 255
-0.262080 -1.323618 2.040001 255 255 255
1.487907 0.286082 0.695304 255 255 255
-0.773553 0.729869 3.498876 255 255 255
3.342356 -1.548189 3.261587 255 255 255
-0.594513 -0.268218 3.146297 255 255 255
3.138878 -1.456062 2.905357 255 255 255
-0.693153 0.481531 2.941509 255 255 255
4.213314 -1.541361 0.413361 255 255 255
-0.167219 -1.307420 4.603813 255 255 255
0.967620 -1.554112 0.711129 255 255 255
-0.763747 0.721831 3.496959 255 255 255
4.209649 -0.380583 1.544476 255 255 255
-0.343918 -1.543514 1.651285 255 255 255
2.107521 -1.418922 3.165247 255 255 255
2.279094 0.592884 1.928413 255 255 255
-0.387037 0.527852 2.565564 255 255 255
1.301905 -0.967848 1.700161 255 255 255
-0.149004 -0.053031 4.581529 255 255 255
0.792290 -0.387991 -0.599361 255 255 255
2.098321 -1.403895 3.234872 255 255 255
0.766089 0.259646 -1.235239 255 255 255
-0.803779 0.093453 3.534872 255 255 255
-0.782102 0.031529 3.316298 255 255 255
-0.804628 0.757342 4.174044 255 255 255
1.774725 -0.350546 -0.712546 255 255 255
-0.429799 0.606705 4.299193 255 255 255
-0.773997 0.035772 3.313475 255 255 255
-0.821384 0.095756 3.549220 255 255 255
3.488663 -1.409950 1.395563 255 255 255
3.812697 -0.394345 -0.430364 255 255 255
1.230341 -1.404047 3.513194 255 255 255
-0.781989 -1.321926 4.606490 255 255 255
3.612487 0.277163 1.659644 255 255 255
1.964496 -0.433845 4.596091 255 255 255
2.497165 -1.425501 0.992116 255 255 255
2.779883 0.354036 2.160988 255 255 255
-0.704567 0.789753 0.455146 255 255 255
1.421859 0.735328 0.984338 255 255 255
3.657539 -1.473054 1.732905 255 255 255
3.588022 0.741890 3.303444 255 255 255
-0.358553 0.721014 4.536450 255 255 255
2.268572 -1.477592 3.524820 255 255 255
4.212576 -0.436594 3.150839 255 255 255
1.984295 -1.429757 1.742507 255 255 255
1.771934 -1.526839 0.946495 255 255 255
3.987411 0.066367 0.515678 255 255 255
1.981016 -0.837804 4.559748 255 255 255
3.870889 -1.512103 1.584569 255 255 255
4.206596 -0.602506 2.315167 255 255 255
4.199796 -0.386416 3.070970 255 255 255
-0.613788 -0.585205 2.346540 255 255 255
0.591174 -1.589295 1.634958 255 255 255
0.929317 -1.569687 3.060007 255 255 255
1.353287 -1.426578 4.079993 255 255 255
4.208294 -1.412453 3.484823 255 255 255
4.207494 -0.536779 3.288114 255 255 255
3.609893 -1.513707 1.838159 255 255 255
0.938788 -1.468046 1.323265 255 255 255
-0.754039 -0.285965 4.471143 255 255 255
4.047950 -1.434682 2.512614 255 255 255
1.266205 -1.463751 4.426997 255 255 255
2.968046 -0.911400 4.565087 255 255 255
1.174953 -0.341826 -0.826041 255 255 255
0.849764 -1.675768 0.502853 255 255 255
2.392629 -1.536752 3.044571 255 255 255
0.347232 -1.665921 2.883941 255 255 255
4.180274 0.152420 2.994726 255 255 255
0.887235 -0.259631 4.535653 255 255 255
4.203564 -0.517099 2.483364 255 255 255
0.331730 -1.459997 3.986548 255 255 255
3.801984 -1.460337 2.100137 255 255 255
2.949109 -1.428775 2.853852 255 255 255
4.115685 -0.661343 0.875630 255 255 255
1.208390 -1.383309 4.330538 255 255 255
0.251885 -1.439634 4.404440 255 255 255
4.203821 -0.283963 2.772942 255 255 255
3.057675 -1.473340 1.322508 255 255 255
3.134619 0.431261 2.817218 255 255 255
-0.215622 -1.589854 0.736335 255 255 255
2.846647 0.279258 2.424936 255 255 255
2.459279 -0.239363 4.355251 255 255 255
3.775733 -1.478961 1.343883 255 255 255
3.795747 -0.729758 4.554497 255 255 255
4.193363 -0.371739 3.426053 255 255 255
3.445592 -1.000306 4.497107 255 255 255
-0.775781 -1.312698 4.599307 255 255 255
1.088661 0.757977 4.492976 255 255 255
0.779907 0.780173 3.018660 255 255 255
3.066147 0.653763 -0.762102 255 255 255
3.321133 0.499525 0.459571 255 255 255
3.864190 0.679691 -0.667683 255 255 255
4.214709 -0.317612 1.987637 255 255 255
3.292969 0.519599 0.494548 255 255 255
2.816515 0.590910 -0.439801 255 255 255
2.772964 -1.496536 1.778041 255 255 255
4.201873 -0.612517 2.649516 255 255 255
1.495890 -1.420262 3.938800 255 255 255
4.250175 -0.689721 1.485006 255 255 255
2.616131 -0.449933 4.121871 255 255 255
-0.727163 -0.704573 3.469736 255 255 255
-0.785782 -0.034355 3.320501 255 255 255
3.290894 -0.035234 4.048937 255 255 255
2.605967 -1.549245 1.770946 255 255 255
0.360473 -1.496655 1.798911 255 255 255
0.993959 0.778257 4.612366 255 255 255
3.773230 0.707343 -0.683493 255 255 255
-0.766562 -0.729612 3.493712 255 255 255
-0.347748 -1.286979 2.110249 255 255 255
3.150366 -1.502086 3.568215 255 255 255
3.198081 -1.549539 2.691552 255 255 255
0.840618 -1.435582 0.408486 255 255 255
2.731279 -0.442186 4.257400 255 255 255
3.264673 -1.537926 3.267606 255 255 255
2.144320 -1.430016 3.038543 255 255 255
4.177291 -0.253913 1.676790 255 255 255
0.686601 0.740287 3.020923 255 255 255
1.378376 -0.984731 1.479386 255 255 255
3.917504 -0.416451 0.396380 255 255 255
1.281721 -1.441776 3.519871 255 255 255
2.760500 -1.427056 1.409253 255 255 255
-0.773838 -0.035279 3.312348 255 255 255
3.764954 -1.416996 1.053121 255 255 255
2.721955 -1.472119 3.980870 255 255 255
1.706437 -1.480987 0.983446 255 255 255
1.462211 -1.466810 2.760364 255 255 255
1.523584 -0.228101 4.525310 255 255 255
-0.826634 0.541779 3.614309 255 255 255
3.298699 0.264809 4.107306 255 255 255
2.023608 -1.505213 1.565562 255 255 255
0.912468 -1.477630 1.309677 255 255 255
3.229986 -1.530763 2.723194 255 255 255
1.189454 -1.344485 3.209674 255 255 255
1.460019 -1.479588 2.730960 255 255 255
-0.822374 0.773248 4.179829 255 255 255
0.317346 -1.415408 2.547240 255 255 255
-0.802155 0.094657 3.531179 255 255 255
2.619632 0.735469 2.868141 255 255 255
1.323430 0.753851 4.601861 255 255 255
-0.614919 0.762033 3.147930 255 255 255
0.341650 -0.391614 4.514791 255 255 255
-0.422553 -0.019532 4.588881 255 255 255
-0.465809 0.783634 3.434071 255 255 255
2.723667 0.435464 0.533309 255 255 255
1.471031 0.709274 1.008780 255 255 255
-0.395118 0.564044 4.520798 255 255 255
1.414102 0.747440 1.000866 255 255 255
3.624011 -1.464496 1.351334 255 255 255
2.324741 -1.407429 3.431312 255 255 255
1.121092 -0.891527 4.507651 255 255 255
1.137618 -0.427995 4.516387 255 255 255
3.329229 -1.572819 1.836492 255 255 255
0.456033 0.773865 3.382403 255 255 255
2.135817 -1.434058 4.061306 255 255 255
3.702436 -1.479282 1.340264 255 255 255
2.328970 -1.393018 2.737700 255 255 255
4.224695 -1.578835 2.185189 255 255 255
-0.426735 0.614949 4.609996 255 255 255
0.248438 -0.782598 -0.716327 255 255 255
2.969885 -0.683818 4.571148 255 255 255
0.020747 -1.618151 4.572523 255 255 255
3.488795 -1.393238 3.895174 255 255 255
0.638547 -1.513615 1.568297 255 255 255
0.863499 -1.523361 1.569668 255 255 255
3.961777 -0.608705 4.594674 255 255 255
4.209295 -0.700659 2.221507 255 255 255
0.023748 -1.512399 4.474561 255 255 255
3.035120 0.763534 3.861260 255 255 255
1.947521 -1.572927 4.633413 255 255 255
0.125476 -1.518667 3.743071 255 255 255
2.611956 0.641542 1.652159 255 255 255
2.651906 -0.005839 4.213283 255 255 255
3.275834 -1.524181 3.557940 255 255 255
1.783930 -1.673323 4.549790 255 255 255
4.198006 -0.374007 2.302446 255 255 255
3.306208 -1.541286 3.572773 255 255 255
0.269977 -2.109449 0.977285 255 255 255
3.582052 -1.563643 3.377485 255 255 255
3.253077 -1.410603 4.298594 255 255 255
2.621464 -0.688322 4.503010 255 255 255
1.265155 -1.572392 3.089957 255 255 255
1.979110 -1.507565 4.522286 255 255 255
4.208732 -0.546479 3.290942 255 255 255
-0.711238 -0.187540 3.214826 255 255 255
2.752248 -1.450142 1.189605 255 255 255
0.619474 -0.256364 4.507497 255 255 255
-0.548669 0.449705 1.874256 255 255 255
1.020736 -1.567668 1.973793 255 255 255
3.057881 -1.657707 1.027068 255 255 255
3.610711 -1.377670 2.250639 255 255 255
1.253671 -1.410343 2.626390 255 255 255
3.324553 -1.520753 3.266899 255 255 255
-0.818780 -0.773429 4.183480 255 255 255
0.868079 0.768014 2.882710 255 255 255
2.673640 -0.163593 4.624871 255 255 255
1.019462 0.200602 4.509877 255 255 255
2.999899 0.358008 2.169773 255 255 255
3.674811 -1.568535 4.406046 255 255 255
1.922405 -1.415077 2.021240 255 255 255
4.209331 -1.405518 4.000182 255 255 255
3.082526 0.703015 3.853954 255 255 255
2.545425 -0.473854 4.788455 255 255 255
3.672101 0.625849 3.847673 255 255 255
-0.706043 -0.223827 3.055224 255 255 255
1.253862 0.723274 4.519846 255 255 255
-0.474533 -1.545634 2.183823 255 255 255
3.277136 0.757421 4.637813 255 255 255
-0.045795 -0.533917 4.555484 255 255 255
-0.760211 -0.827249 3.432960 255 255 255
0.909586 0.768085 2.825044 255 255 255
2.049903 -1.508929 4.119065 255 255 255
4.211102 -0.400619 2.646549 255 255 255
4.187974 -0.368557 3.098258 255 255 255
0.996415 -1.483605 1.958412 255 255 255
2.441131 -1.468588 3.272088 255 255 255
4.157191 -0.354674 2.239543 255 255 255
2.211138 -1.400328 4.052607 255 255 255
2.769632 -1.536488 1.242823 255 255 255
4.206209 -0.385040 2.681571 255 255 255
2.462024 -1.406640 3.653722 255 255 255
3.397780 0.246335 3.964618 255 255 255
0.807606 -1.433993 2.245918 255 255 255
-0.509520 0.425554 1.952783 255 255 255
1.209470 -1.623161 3.225039 255 255 255
-0.148836 0.342621 4.640562 255 255 255
2.283053 -1.560368 4.625056 255 255 255
0.091828 0.731243 4.555639 255 255 255
1.284426 -1.541809 3.246971 255 255 255
1.790253 -1.456912 2.135605 255 255 255
2.130374 -1.417513 4.042421 255 255 255
2.057413 -1.527399 1.713994 255 255 255
-0.771632 0.038977 3.311683 255 255 255
1.218256 -1.589717 2.747099 255 255 255
0.604404 0.771304 3.267855 255 255 255
3.105794 0.703843 3.855955 255 255 255
1.369636 -1.543223 3.033906 255 255 255
3.766690 0.717423 4.759784 255 255 255
-0.578079 -0.399668 -0.142662 255 255 255
2.507866 -1.558489 2.195973 255 255 255
-0.281534 -0.020711 4.696579 255 255 255
3.096329 0.172328 0.691553 255 255 255
1.871699 -0.755231 -0.626477 255 255 255
2.911588 -1.600001 1.640665 255 255 255
3.592210 0.744011 3.312383 255 255 255
4.081995 0.163434 2.178849 255 255 255
3.063160 -1.457974 3.912287 255 255 255
0.438241 -1.399003 1.030138 255 255 255
4.191010 -0.371240 3.432147 255 255 255
-0.633336 0.056507 1.743687 255 255 255
0.148949 0.787581 4.521615 255 255 255
2.836931 0.333086 2.622395 255 255 255
0.037228 -1.506276 0.860358 255 255 255
3.446777 -1.000584 4.498407 255 255 255
-0.287519 0.039015 4.603343 255 255 255
2.626814 -0.711945 4.510422 255 255 255
2.534399 -1.565480 2.194876 255 255 255
4.216945 -0.612915 1.542179 255 255 255
0.954707 -1.411892 3.733846 255 255 255
2.238194 -1.415970 4.095115 255 255 255
-0.770663 -1.287042 3.246182 255 255 255
4.139407 -1.620280 3.232916 255 255 255
1.138690 -1.415351 2.723748 255 255 255
0.310306 -1.460719 2.571679 255 255 255
2.795386 -1.397777 1.455206 255 255 255
-0.153205 0.030662 4.485706 255 255 255
1.436984 -1.519876 3.282859 255 255 255
-0.739917 -0.045343 4.608259 255 255 255
3.297775 -1.289528 4.156520 255 255 255
2.785562 -1.504111 1.297173 255 255 255
4.064425 -1.504372 1.324483 255 255 255
1.881764 -1.531296 1.696909 255 255 255
2.335804 -1.597883 3.895292 255 255 255
3.746317 -0.001819 -0.736415 255 255 255
3.323583 -1.505935 3.274832 255 255 255
0.018100 -1.406103 2.040302 255 255 255
4.209773 -1.423526 0.333786 255 255 255
1.954022 -0.184034 4.718891 255 255 255
-0.773863 0.040993 3.310824 255 255 255
2.318408 -1.542988 3.106839 255 255 255
0.780121 -1.442486 2.012269 255 255 255
-0.853043 -0.218027 3.386123 255 255 255
1.116483 -1.405978 2.915130 255 255 255
3.320059 0.409424 4.015022 255 255 255
1.030708 -1.529900 1.919321 255 255 255
0.762044 -1.522158 1.698297 255 255 255
4.025443 -1.487039 3.151941 255 255 255
2.288732 -1.572998 3.913465 255 255 255
4.122480 0.149533 2.993833 255 255 255
0.925118 -1.480352 1.149335 255 255 255
2.956900 -0.162379 4.630305 255 255 255
0.781866 -0.389511 -0.612120 255 255 255
1.789991 -1.428079 1.996281 255 255 255
1.417799 -1.402988 2.720849 255 255 255
0.685518 0.696916 -0.716189 255 255 255
3.729445 0.278808 4.838779 255 255 255
-0.078974 -0.270371 4.557666 255 255 255
1.662158 -1.529128 2.216120 255 255 255
0.272603 -0.277765 4.513988 255 255 255
2.800982 0.602267 -0.530384 255 255 255
-0.272851 -1.317006 3.905184 255 255 255
3.469330 -1.517631 4.624312 255 255 255
2.815307 0.352736 0.782873 255 255 255
2.705363 -0.397754 4.604526 255 255 255
2.943782 -1.541422 2.163552 255 255 255
1.297099 0.766138 3.021049 255 255 255
2.328407 -1.393554 2.665662 255 255 255
2.651947 -0.008910 4.214737 255 255 255
0.465183 0.766868 4.598535 255 255 255
-0.125203 -1.559480 1.972629 255 255 255
4.165820 0.115986 2.956241 255 255 255
-0.818446 -0.652671 3.904768 255 255 255
1.202992 0.759550 2.599722 255 255 255
-0.171087 -1.651552 4.594409 255 255 255
2.035516 0.009625 4.588316 255 255 255
2.492116 -1.377314 2.731696 255 255 255
4.209745 -0.697673 1.994509 255 255 255
2.463362 -1.478707 3.264888 255 255 255
-0.753709 0.739059 4.418785 255 255 255
3.134317 -1.582358 4.038074 255 255 255
4.208281 -0.295689 1.466326 255 255 255
2.575616 -1.499246 3.118010 255 255 255
0.520625 -1.694324 4.562446 255 255 255
2.735144 -1.551147 2.796432 255 255 255
4.230932 0.762666 3.413770 255 255 255
0.089235 -1.543002 2.649982 255 255 255
4.199916 -0.661950 1.954075 255 255 255
0.012975 -1.452435 1.778513 255 255 255
-0.291348 -0.036450 4.609609 255 255 255
2.665422 -1.457994 2.728230 255 255 255
2.275279 -1.578190 4.625201 255 255 255
2.927288 -1.541879 2.161834 255 255 255
2.742510 -1.400618 4.030795 255 255 255
-0.022397 -1.391987 1.849974 255 255 255
-0.757420 -0.825915 3.431201 255 255 255
0.337181 -1.445404 4.415742 255 255 255
0.124877 -1.541769 4.193847 255 255 255
2.284834 -1.500575 2.573274 255 255 255
2.172853 -1.437640 3.288990 255 255 255
0.499048 0.752848 4.585599 255 255 255
2.544425 -0.986493 4.501162 255 255 255
1.989329 0.756201 -0.802682 255 255 255
1.305957 -1.472369 3.517699 255 255 255
0.321962 -1.411422 2.597215 255 255 255
0.315362 -0.263938 4.507417 255 255 255
3.442871 -0.606019 4.507313 255 255 255
2.049449 0.733210 4.539113 255 255 255
2.387905 -1.466497 4.106754 255 255 255
1.738484 0.705351 4.531495 255 255 255
0.130287 -1.540798 2.712657 255 255 255
-0.808252 0.768727 3.503565 255 255 255
0.044480 -1.629737 4.549783 255 255 255
3.150838 -1.490058 4.101181 255 255 255
0.958088 -1.390907 2.040334 255 255 255
0.262297 0.721084 -0.759966 255 255 255
0.943386 0.745643 4.549101 255 255 255
0.734897 -1.436409 0.844644 255 255 255
4.219930 -0.679097 1.518630 255 255 255
0.619341 -0.259400 4.515024 255 255 255
3.687504 -1.516365 1.922680 255 255 255
1.642759 -1.456913 3.117338 255 255 255
1.309709 -1.394145 2.592493 255 255 255
3.031233 -1.230761 3.265392 255 255 255
1.813917 -1.487849 1.775053 255 255 255
4.228665 -1.264275 1.704147 255 255 255
-0.141740 -1.462202 0.477995 255 255 255
-0.507710 0.738647 -0.831298 255 255 255
2.741733 0.609723 -0.483141 255 255 255
-0.068366 -0.260400 4.542206 255 255 255
1.800233 -1.558283 2.152811 255 255 255
4.165604 -1.521746 3.271737 255 255 255
2.881082 -1.466784 3.874012 255 255 255
-0.666992 -0.666914 -0.119429 255 255 255
0.339188 -1.441745 4.421536 255 255 255
2.451052 -1.456412 4.375760 255 255 255
-0.757762 0.038433 3.354702 255 255 255
2.116770 -1.482368 2.850757 255 255 255
-0.082110 -0.276932 4.553564 255 255 255
3.858759 -1.449916 0.432989 255 255 255
1.827086 2.083441 2.355833 255 255 255
3.043030 -0.584606 4.575854 255 255 255
0.324803 -1.415465 2.597746 255 255 255
2.221818 -1.581708 1.648147 255 255 255
0.640059 -1.530657 2.016332 255 255 255
1.457597 -1.474215 1.794884 255 255 255
1.916339 -1.562490 1.647233 255 255 255
-0.778949 -0.761609 3.500426 255 255 255
-0.752499 -0.765150 4.193959 255 255 255
0.131228 -1.551958 2.617058 255 255 255
2.874478 -1.420534 2.278606 255 255 255
1.688905 -1.576989 2.176158 255 255 255
2.525074 -1.402502 2.063389 255 255 255
2.897443 0.195713 2.510857 255 255 255
-0.465230 -1.551597 2.189469 255 255 255
3.364705 -1.565381 1.983556 255 255 255
-0.824029 -0.012753 3.632755 255 255 255
4.198442 -0.303999 2.218853 255 255 255
-0.785672 -0.448757 3.260668 255 255 255
-0.541485 -0.233787 3.046548 255 255 255
4.209621 -0.704971 3.495979 255 255 255
1.711744 -1.529493 1.700685 255 255 255
3.290758 -1.483593 3.280706 255 255 255
2.079391 -1.488730 3.016751 255 255 255
0.580749 0.772983 4.501129 255 255 255
-0.863953 -0.025204 3.305116 255 255 255
2.952659 -1.394322 3.060114 255 255 255
-0.431286 0.732698 -0.702790 255 255 255
4.105048 -1.479855 4.297911 255 255 255
4.415264 -0.667803 2.207988 255 255 255
1.859231 0.751667 4.595247 255 255 255
2.975721 -1.535182 2.194825 255 255 255
3.852933 -0.434397 -0.461726 255 255 255
0.935981 -1.431419 1.002384 255 255 255
2.624437 0.706090 1.692638 255 255 255
0.124775 0.149449 4.541246 255 255 255
4.245636 -0.338494 2.240583 255 255 255
4.230824 -0.323932 3.494713 255 255 255
2.549266 -1.438215 3.860482 255 255 255
1.125837 -1.450269 0.844779 255 255 255
-0.389436 0.800472 3.423006 255 255 255
4.133508 -0.324808 2.270456 255 255 255
0.641987 -1.476836 2.813468 255 255 255
1.370585 -1.454344 3.986323 255 255 255
2.515242 -1.435919 3.983458 255 255 255
3.061352 -1.369208 0.937544 255 255 255
-0.831233 0.442543 3.906729 255 255 255
1.971556 0.618766 -0.104308 255 255 255
2.523739 -1.496830 0.857418 255 255 255
3.629432 -1.540202 3.547191 255 255 255
3.496881 -1.465224 2.602384 255 255 255
1.036638 0.771072 4.525596 255 255 255
1.562883 -1.485567 2.936084 255 255 255
3.064018 -1.575931 4.018886 255 255 255
2.969038 -1.427355 3.156583 255 255 255
-0.768182 -0.421587 3.332100 255 255 255
3.997652 -1.507146 3.892542 255 255 255
0.786592 -1.424765 4.022153 255 255 255
1.328318 -1.442512 4.423766 255 255 255
0.843517 -1.547370 4.488169 255 255 255
-0.005500 -0.180738 4.244035 255 255 255
0.453223 -1.422291 2.024632 255 255 255
1.198148 0.741686 2.618025 255 255 255
-0.469999 0.409944 2.511578 255 255 255
0.814197 0.532967 -0.601573 255 255 255
4.215849 -1.423551 2.561412 255 255 255
2.059517 -1.537421 4.586010 255 255 255
-0.352915 0.661887 2.954364 255 255 255
1.053652 -1.487786 3.477114 255 255 255
3.442901 -1.510128 2.522243 255 255 255
-0.263059 -1.306941 3.872502 255 255 255
4.064260 -1.453240 4.283814 255 255 255
0.368569 -0.425771 4.510262 255 255 255
0.551235 -0.843269 4.553516 255 255 255
1.881922 -1.522747 0.728648 255 255 255
0.292945 -1.392793 2.555115 255 255 255
-0.510833 -0.822954 -0.742938 255 255 255
2.274778 -1.528723 3.263441 255 255 255
-0.242289 -1.655955 1.387471 255 255 255
3.312516 -1.570374 3.557129 255 255 255
2.981692 -1.445915 1.366059 255 255 255
1.295920 -1.461081 3.286718 255 255 255
4.149168 -1.466145 3.336868 255 255 255
1.329881 -1.404238 3.596705 255 255 255
1.056771 0.129427 -0.961804 255 255 255
1.162770 -0.276586 4.541406 255 255 255
2.556710 -0.994336 4.608506 255 255 255
0.372347 0.762289 4.548854 255 255 255
2.320358 -1.397149 3.598718 255 255 255
2.991398 -1.447615 1.375423 255 255 255
-0.809869 0.093943 3.565235 255 255 255
-0.380312 0.527218 2.566880 255 255 255
2.205874 -1.488269 3.137710 255 255 255
2.560631 -1.553704 3.756233 255 255 255
2.537279 -1.549262 2.672375 255 255 255
0.367404 -1.495327 3.334062 255 255 255
2.861353 0.247047 2.619279 255 255 255
2.209326 -1.555724 3.764503 255 255 255
2.516633 -0.980520 4.492256 255 255 255
2.082415 -1.707964 1.518117 255 255 255
0.789407 -1.576437 1.656141 255 255 255
0.808777 -1.516895 1.879444 255 255 255
-0.131058 -1.399185 2.252164 255 255 255
0.974436 0.784022 3.906286 255 255 255
3.268234 -1.460723 2.615766 255 255 255
0.620507 -0.256497 4.508482 255 255 255
-0.650596 0.057742 1.746968 255 255 255
-0.158103 -1.529276 0.811436 255 255 255
0.245152 -0.754452 -0.732528 255 255 255
-0.122986 0.311250 4.547111 255 255 255
-0.478772 0.420395 2.489549 255 255 255
2.210223 -1.538598 3.741272 255 255 255
-0.782079 -0.760876 4.175211 255 255 255
1.388034 0.785218 4.532267 255 255 255
-0.042959 -0.529728 4.546750 255 255 255
-0.816836 0.007937 3.903125 255 255 255
0.648201 -1.477782 2.813812 255 255 255
0.196690 -1.529529 4.194191 255 255 255
0.748930 -1.559941 1.983472 255 255 255
4.288479 -0.687571 3.466270 255 255 255
3.055642 -1.524611 3.125505 255 255 255
2.701798 -0.387847 4.593074 255 255 255
-0.551390 -0.241849 3.038249 255 255 255
2.134358 -1.467183 2.754682 255 255 255
1.308539 0.774299 3.013775 255 255 255
0.250308 -1.453588 4.343700 255 255 255
0.270511 -0.798192 -0.728941 255 255 255
-0.348749 -1.309617 2.974255 255 255 255
3.712288 -1.630656 0.642329 255 255 255
2.190077 -1.453144 4.096808 255 255 255
3.768351 0.149692 4.620610 255 255 255
-0.747416 0.028249 4.240683 255 255 255
-0.775250 -1.348395 0.747995 255 255 255
1.367321 -1.458386 2.795670 255 255 255
-0.832439 0.158595 3.782138 255 255 255
0.004147 -1.509434 0.838713 255 255 255
1.265615 -1.421062 4.018076 255 255 255
1.442104 -1.521657 3.599520 255 255 255
0.514866 -1.594347 4.503975 255 255 255
-0.527158 0.246489 2.654794 255 255 255
3.347306 -1.559224 3.569906 255 255 255
0.512628 0.757909 2.629423 255 255 255
1.559470 -1.475569 3.993195 255 255 255
4.203463 -0.455717 2.480817 255 255 255
0.792319 -1.535512 0.811663 255 255 255
2.543004 -0.604936 4.448218 255 255 255
1.258636 0.783241 3.631609 255 255 255
0.004672 -1.425910 2.018624 255 255 255
2.755032 0.373799 2.174929 255 255 255
-0.288164 -0.037844 4.602409 255 255 255
2.463371 -1.726040 2.682741 255 255 255
2.276519 -1.527801 3.109556 255 255 255
2.518026 -1.519546 2.725745 255 255 255
-0.471707 -0.800836 -0.746494 255 255 255
0.792117 -1.518514 0.815450 255 255 255
1.969746 -0.404429 -0.585687 255 255 255
-0.645145 -0.621426 2.925937 255 255 255
3.141096 -1.596718 2.805497 255 255 255
-0.589147 -0.452220 3.254292 255 255 255
2.091067 -1.472156 3.150389 255 255 255
1.202526 -1.444268 2.690848 255 255 255
1.157050 -0.216421 4.514260 255 255 255
3.319119 -1.545190 2.011376 255 255 255
2.896214 -1.475115 0.419728 255 255 255
-0.459311 -0.214370 3.208041 255 255 255
0.373491 -1.553131 1.865151 255 255 255
0.046631 -1.632017 4.547173 255 255 255
1.248817 -1.510571 3.061386 255 255 255
1.162977 -1.591509 4.526151 255 255 255
-0.653763 0.079216 2.930275 255 255 255
-0.690311 0.704600 0.575776 255 255 255
1.876080 -1.504457 1.288620 255 255 255
0.774684 0.259598 4.537016 255 255 255
2.555559 -0.598488 4.616951 255 255 255
-0.371099 -1.336273 2.957491 255 255 255
4.084549 -1.538375 3.236699 255 255 255
0.497712 0.047865 4.561041 255 255 255
2.294354 0.740039 3.286981 255 255 255
4.191225 -0.278350 1.526015 255 255 255
-0.330311 -1.312550 3.817702 255 255 255
0.279478 -1.409666 1.722438 255 255 255
0.189945 -1.473916 1.640818 255 255 255
0.946892 0.756872 4.562067 255 255 255
3.331812 -1.388106 2.661724 255 255 255
-0.701533 -0.222257 3.051253 255 255 255
1.148994 -0.404105 4.539907 255 255 255
2.775993 -1.590192 1.959814 255 255 255
-0.120618 0.309609 4.544369 255 255 255
4.115431 -1.532357 2.699053 255 255 255
2.861883 0.371938 2.618245 255 255 255
4.194155 -1.484049 0.390832 255 255 255
-0.583608 -0.246666 3.032476 255 255 255
0.249648 -0.224751 4.505745 255 255 255
0.839725 0.118075 -0.781972 255 255 255
3.668771 0.627913 3.844844 255 255 255
4.242011 -1.637737 4.112283 255 255 255
-0.673890 -0.813003 0.557107 255 255 255
-0.336646 0.707557 4.470174 255 255 255
2.802514 0.353931 2.758456 255 255 255
1.066520 -1.495452 4.112081 255 255 255
1.054443 -1.464745 4.175046 255 255 255
1.268989 -0.271990 -0.691108 255 255 255
0.347188 -0.328325 4.517570 255 255 255
2.712802 -1.741585 2.017649 255 255 255
0.490759 0.744385 3.416707 255 255 255
-0.814370 -1.347115 4.473770 255 255 255
0.457114 0.773236 4.220618 255 255 255
0.745344 -1.530755 2.013599 255 255 255
3.345254 -1.359573 2.678281 255 255 255
0.720265 -0.396680 4.593540 255 255 255
0.495947 0.047632 4.560339 255 255 255
0.740567 0.763228 3.083223 255 255 255
1.093885 -1.601758 1.606480 255 255 255
1.260350 -1.526475 2.794121 255 255 255
2.192811 -1.502854 2.741247 255 255 255
2.505717 -1.478070 4.106136 255 255 255
1.518523 -1.453580 2.801488 255 255 255
0.320267 -1.452263 2.608913 255 255 255
1.284276 -0.264053 4.549012 255 255 255
0.852840 0.803950 2.900355 255 255 255
1.013957 0.146675 4.495395 255 255 255
3.659132 0.752341 3.311567 255 255 255
4.199596 -0.294364 2.222550 255 255 255
1.259331 0.728953 4.520671 255 255 255
0.857082 -1.572808 4.511711 255 255 255
0.893635 -0.362589 4.547310 255 255 255
2.277607 -1.473730 2.590808 255 255 255
3.360117 -1.563025 3.568123 255 255 255
0.533189 -1.622047 4.524645 255 255 255
4.155868 0.132276 1.512131 255 255 255
1.254108 0.660203 4.502583 255 255 255
-0.470697 -0.219787 3.105909 255 255 255
-0.700176 0.463805 2.775654 255 255 255
4.198766 -1.417073 3.205212 255 255 255
-0.193140 -1.340314 4.596036 255 255 255
2.318927 -1.552892 4.180907 255 255 255
-0.020872 -0.764576 4.547324 255 255 255
2.351163 -1.444923 3.959100 255 255 255
0.631640 0.766212 3.194128 255 255 255
2.275101 -1.791868 2.673662 255 255 255
1.306508 -0.373157 4.542801 255 255 255
4.117140 0.141767 3.039367 255 255 255
0.888680 -0.360005 4.536410 255 255 255
-0.244945 0.034552 4.590663 255 255 255
-0.778695 0.183436 4.233900 255 255 255
-0.719343 -0.781314 1.337416 255 255 255
0.729393 0.741060 3.082708 255 255 255
1.305784 -1.584534 3.770169 255 255 255
1.331458 -1.507655 3.513246 255 255 255
2.769291 0.353257 2.224881 255 255 255
-1.770397 -1.530843 0.331387 255 255 255
0.752604 0.756705 3.120250 255 255 255
1.951327 -0.251771 4.596462 255 255 255
0.660291 -1.739312 1.797861 255 255 255
-0.165458 -1.538309 1.339118 255 255 255
2.629403 -1.562915 0.917415 255 255 255
0.677724 -0.777536 4.501748 255 255 255
2.189218 -1.676870 1.517618 255 255 255
-0.800163 0.522109 3.899687 255 255 255
1.406031 -1.492192 3.072681 255 255 255
0.100956 -1.433406 1.819332 255 255 255
2.262707 -1.448417 2.630290 255 255 255
-0.783397 0.042289 3.353752 255 255 255
-0.018094 -0.619118 4.529762 255 255 255
0.989388 -1.481916 1.940604 255 255 255
2.675625 -1.498621 4.183844 255 255 255
1.332670 -1.532725 2.492112 255 255 255
2.189514 -1.503086 3.581939 255 255 255
-0.781501 -1.292877 3.236371 255 255 255
2.267777 0.733887 3.292221 255 255 255
4.227123 -0.301492 2.010660 255 255 255
3.320527 -1.405262 3.221172 255 255 255
0.915288 -1.503366 1.728146 255 255 255
2.055629 0.740521 4.542371 255 255 255
1.036087 -1.397196 1.868857 255 255 255
-0.230974 -1.611489 1.740510 255 255 255
3.096747 -1.763045 1.441079 255 255 255
3.496391 -1.420541 3.300587 255 255 255
0.751938 -1.503067 1.706585 255 255 255
-0.313027 -1.351681 0.397940 255 255 255
0.890135 -0.317799 4.545578 255 255 255
2.614951 -1.222965 0.982135 255 255 255
2.245216 -1.539424 3.578858 255 255 255
3.050592 0.423202 4.238027 255 255 255
3.135208 0.728126 2.892050 255 255 255
3.698574 0.293304 4.603840 255 255 255
-0.392437 0.535493 2.558418 255 255 255
1.250232 -1.537681 3.044201 255 255 255
2.535466 0.702926 -0.677562 255 255 255
3.291175 -1.552264 1.778719 255 255 255
3.083074 0.569061 4.183512 255 255 255
1.787268 -0.263509 4.548730 255 255 255
3.205720 0.640413 1.657212 255 255 255
1.686318 -1.434565 3.872654 255 255 255
2.792692 0.363160 2.131911 255 255 255
0.579191 -1.551413 1.991533 255 255 255
3.278940 -1.376245 2.636290 255 255 255
2.063614 -1.417458 1.011927 255 255 255
1.395800 0.176515 0.402510 255 255 255
2.713192 0.735246 1.622927 255 255 255
2.730688 0.570471 -0.457034 255 255 255
0.338625 -0.392450 4.514977 255 255 255
1.716000 -1.531969 1.686530 255 255 255
1.080230 -1.517710 2.801570 255 255 255
0.890751 -0.410980 4.541506 255 255 255
1.179897 -1.836731 2.661510 255 255 255
2.259389 -1.514847 4.179124 255 255 255
1.466535 -1.394786 3.950544 255 255 255
-0.657577 0.735353 3.116823 255 255 255
3.062685 -1.625905 0.694768 255 255 255
0.814545 0.728715 2.907890 255 255 255
2.234587 -1.541012 3.574790 255 255 255
0.838946 -1.506531 3.002058 255 255 255
0.140526 -1.498535 3.161022 255 255 255
0.815531 0.749636 2.887749 255 255 255
-0.968729 -1.546185 1.975147 255 255 255
0.888827 -0.255838 4.538515 255 255 255
1.060323 -1.468389 2.670154 255 255 255
0.334936 -0.371976 4.525065 255 255 255
2.601608 -1.554753 1.863358 255 255 255
-0.684974 0.740189 3.054095 255 255 255
3.740335 0.633980 4.382624 255 255 255
0.849175 -0.263288 4.548988 255 255 255
0.753920 -1.547017 2.143887 255 255 255
3.313331 -1.484525 4.058692 255 255 255
3.285304 -1.553178 3.097416 255 255 255
4.210885 -1.417643 3.618630 255 255 255
2.285794 -1.378312 3.600581 255 255 255
4.194027 -0.603029 2.660383 255 255 255
-0.511740 0.642439 4.638195 255 255 255
1.117932 0.764558 4.528840 255 255 255
1.866417 -1.566703 0.924723 255 255 255
2.906415 0.663885 -0.484977 255 255 255
-0.281298 -1.359420 0.335476 255 255 255
3.029288 0.425629 0.716588 255 255 255
0.273678 0.205508 4.511445 255 255 255
4.127511 -0.519250 0.782769 255 255 255
-0.778690 -0.834274 3.430183 255 255 255
2.514230 -0.961464 4.485247 255 255 255
3.775021 -1.855319 1.889369 255 255 255
3.003423 0.710830 -0.695706 255 255 255
3.753737 -1.478674 3.277011 255 255 255
-0.322559 -1.299944 3.921959 255 255 255
-0.581499 0.671567 1.398475 255 255 255
-0.313151 -1.279381 2.991108 255 255 255
-0.437265 0.447040 2.594582 255 255 255
4.209193 -0.380649 1.541712 255 255 255
3.262858 -1.534859 4.042048 255 255 255
2.409065 -1.491054 3.001243 255 255 255
1.605251 -0.262852 -0.550755 255 255 255
2.484381 0.740658 -0.739309 255 255 255
0.891092 -0.415300 4.547212 255 255 255
3.344706 -1.619326 3.042334 255 255 255
-0.723280 -0.822515 0.554146 255 255 255
1.478835 0.735890 4.538587 255 255 255
-0.711443 -0.205363 4.230493 255 255 255
4.852181 -0.795707 1.981165 255 255 255
1.250988 -1.523260 2.800991 255 255 255
3.278592 -1.552196 4.176766 255 255 255
1.814075 -1.537120 3.883667 255 255 255
-0.838235 0.047107 4.268955 255 255 255
-0.034499 -1.090094 4.641072 255 255 255
-0.739000 0.739342 3.447399 255 255 255
1.070010 -1.494804 3.069373 255 255 255
1.240245 0.027059 0.479599 255 255 255
3.596061 0.734036 3.103528 255 255 255
1.227904 0.234280 -0.676659 255 255 255
4.096653 0.159682 2.190377 255 255 255
2.863544 -1.458627 2.539784 255 255 255
2.989939 -0.360340 -0.781554 255 255 255
2.105209 -1.513706 2.802103 255 255 255
-0.847220 -0.381964 4.076540 255 255 255
0.904084 -1.623647 4.538962 255 255 255
3.435270 -0.931657 4.487907 255 255 255
-0.268529 -1.290679 0.522965 255 255 255
1.011809 0.254619 4.509158 255 255 255
3.356713 0.492590 0.650008 255 255 255
3.025709 -0.146862 4.643223 255 255 255
2.564516 -0.061703 -0.610924 255 255 255
1.252132 -1.517486 2.649336 255 255 255
2.496165 -1.548724 3.100423 255 255 255
-0.131686 -1.430287 1.441655 255 255 255
-0.669128 0.118372 4.474989 255 255 255
1.208383 0.767161 2.848701 255 255 255
3.340835 0.661964 2.841194 255 255 255
-0.562022 0.427263 2.378020 255 255 255
2.085580 -1.454404 3.980974 255 255 255
0.324871 -1.620526 4.517251 255 255 255
0.101443 0.708228 4.536092 255 255 255
-0.286349 0.036343 4.619463 255 255 255
0.917098 0.752397 4.515227 255 255 255
2.895333 0.837361 4.178757 255 255 255
1.013546 -0.063496 4.477039 255 255 255
4.140284 0.121769 2.986543 255 255 255
1.257555 -1.353702 2.757776 255 255 255
-0.468812 0.450388 2.561426 255 255 255
4.235862 -1.637827 3.752476 255 255 255
1.144799 -0.319240 4.515768 255 255 255
4.664189 -1.432753 1.436581 255 255 255
3.971371 0.123392 0.532560 255 255 255
2.592040 -0.860165 4.486527 255 255 255
0.296958 -1.395235 2.562732 255 255 255
4.164191 -1.563455 2.178884 255 255 255
-0.716310 -0.224554 3.046977 255 255 255
1.266452 -1.399356 2.587919 255 255 255
4.200160 -0.384410 3.419499 255 255 255
3.373677 -1.494234 1.940606 255 255 255
2.597389 0.637308 1.671360 255 255 255
0.274053 0.823494 4.593025 255 255 255
4.350347 -2.013988 0.484944 255 255 255
0.057262 0.784318 4.612165 255 255 255
3.342790 -1.546797 3.572474 255 255 255
0.036081 -1.487437 2.615389 255 255 255
-0.832386 -0.011116 3.757637 255 255 255
0.557241 -1.554807 1.981305 255 255 255
0.491880 0.049600 4.564563 255 255 255
2.250939 -1.462997 4.419064 255 255 255
1.453223 -1.393865 2.869370 255 255 255
1.397883 -1.348984 2.765479 255 255 255
2.689609 0.758662 4.144186 255 255 255
1.856425 -1.512923 2.167166 255 255 255
-0.817675 -1.416201 2.183309 255 255 255
-0.735917 -0.518610 3.180300 255 255 255
-0.484132 0.257225 2.681240 255 255 255
-0.138154 -1.481507 1.441918 255 255 255
0.623843 -1.399631 2.947101 255 255 255
1.205378 0.754175 2.869821 255 255 255
3.233163 -1.450994 2.777443 255 255 255
1.780402 -1.488564 1.758174 255 255 255
-0.521726 0.412256 1.909922 255 255 255
2.071162 0.705676 4.540368 255 255 255
2.291358 -1.481847 2.599410 255 255 255
-0.817043 -0.287019 2.981446 255 255 255
3.975434 -0.038044 0.503213 255 255 255
2.661128 -1.872696 1.867538 255 255 255
3.363976 -0.947501 4.469941 255 255 255
3.121898 0.429886 4.071502 255 255 255
2.227680 -1.531318 3.050734 255 255 255
