2.897049 0.441550 1.445426 0.000000 0.000000 0.000000 
2.910465 0.489951 1.407043 0.000000 0.000000 0.000000 
2.645190 0.298787 1.485941 0.000000 0.000000 0.000000 
3.077390 0.905785 1.180240 0.000000 0.000000 0.000000 
2.659713 0.299541 1.316917 0.000000 0.000000 0.000000 
2.627743 0.870647 1.365185 0.000000 0.000000 0.000000 
2.507007 1.200393 1.479164 0.000000 0.000000 0.000000 
2.528866 1.194484 1.426420 0.000000 0.000000 0.000000 
2.553975 1.187736 1.805313 0.000000 0.000000 0.000000 
2.566278 1.184266 1.791860 0.000000 0.000000 0.000000 
2.938759 0.597297 1.804005 0.000000 0.000000 0.000000 
2.633206 0.783543 1.710952 0.000000 0.000000 0.000000 
2.609384 0.530677 1.642007 0.000000 0.000000 0.000000 
2.601781 0.816332 1.629819 0.000000 0.000000 0.000000 
2.919744 0.598194 1.505695 0.000000 0.000000 0.000000 
2.616661 1.167317 1.564201 0.000000 0.000000 0.000000 
2.613458 0.835012 1.465040 0.000000 0.000000 0.000000 
2.602587 0.801091 1.441535 0.000000 0.000000 0.000000 
2.761050 0.343763 1.294483 0.000000 0.000000 0.000000 
2.699002 0.511698 1.284981 0.000000 0.000000 0.000000 
2.916425 0.521786 1.823664 0.000000 0.000000 0.000000 
2.631906 0.580450 1.676774 0.000000 0.000000 0.000000 
3.026252 0.787614 1.537100 0.000000 0.000000 0.000000 
2.939391 1.075324 1.541078 0.000000 0.000000 0.000000 
2.620320 0.864260 1.505033 0.000000 0.000000 0.000000 
2.641923 1.160139 1.507952 0.000000 0.000000 0.000000 
3.104318 1.004656 1.261484 0.000000 0.000000 0.000000 
2.817264 1.111020 1.974464 0.000000 0.000000 0.000000 
2.909133 0.617356 2.054397 0.000000 0.000000 0.000000 
2.831669 0.271419 1.891629 0.000000 0.000000 0.000000 
2.922741 0.549782 1.811349 0.000000 0.000000 0.000000 
3.095725 0.970420 1.754149 0.000000 0.000000 0.000000 
2.871944 0.522856 1.782084 0.000000 0.000000 0.000000 
2.677577 0.578080 1.634408 0.000000 0.000000 0.000000 
2.818909 1.112606 1.590731 0.000000 0.000000 0.000000 
3.039506 1.053765 1.457043 0.000000 0.000000 0.000000 
2.607879 1.168994 1.597249 0.000000 0.000000 0.000000 
2.791882 0.262616 1.455200 0.000000 0.000000 0.000000 
2.615817 0.864658 1.927032 0.000000 0.000000 0.000000 
2.847482 0.325942 1.976496 0.000000 0.000000 0.000000 
2.751542 0.242829 1.851304 0.000000 0.000000 0.000000 
2.865503 0.350084 1.809292 0.000000 0.000000 0.000000 
2.541679 1.189068 1.782060 0.000000 0.000000 0.000000 
2.750419 0.675507 1.694379 0.000000 0.000000 0.000000 
2.614086 0.879301 1.612356 0.000000 0.000000 0.000000 
2.928860 0.522170 1.332451 0.000000 0.000000 0.000000 
2.599505 0.800432 2.073032 0.000000 0.000000 0.000000 
2.566635 0.727241 2.073761 0.000000 0.000000 0.000000 
3.029165 1.043106 2.139786 0.000000 0.000000 0.000000 
2.985544 1.057028 1.979208 0.000000 0.000000 0.000000 
3.058480 0.835922 1.974437 0.000000 0.000000 0.000000 
2.784785 0.257168 1.960954 0.000000 0.000000 0.000000 
3.054045 0.814954 1.871797 0.000000 0.000000 0.000000 
2.969784 1.068033 1.768860 0.000000 0.000000 0.000000 
2.550060 1.188105 1.673445 0.000000 0.000000 0.000000 
3.052449 0.817904 1.477262 0.000000 0.000000 0.000000 
2.563746 1.182891 1.651450 0.000000 0.000000 0.000000 
3.052070 1.041791 1.388262 0.000000 0.000000 0.000000 
2.587872 1.178471 1.588042 0.000000 0.000000 0.000000 
2.518251 0.542302 2.071368 0.000000 0.000000 0.000000 
3.077436 0.908116 2.099211 0.000000 0.000000 0.000000 
2.542715 0.622313 2.025067 0.000000 0.000000 0.000000 
2.718476 1.136386 1.981393 0.000000 0.000000 0.000000 
2.609650 0.857978 1.991316 0.000000 0.000000 0.000000 
2.604651 0.822481 1.930824 0.000000 0.000000 0.000000 
2.607204 1.170406 1.835664 0.000000 0.000000 0.000000 
2.520803 1.194899 1.824267 0.000000 0.000000 0.000000 
2.586036 1.175625 1.819399 0.000000 0.000000 0.000000 
3.086989 0.929043 1.748274 0.000000 0.000000 0.000000 
2.601417 0.804227 1.781532 0.000000 0.000000 0.000000 
2.788461 0.262026 1.449177 0.000000 0.000000 0.000000 
3.009462 0.769866 1.369106 0.000000 0.000000 0.000000 
3.058880 0.864658 2.261093 0.000000 0.000000 0.000000 
2.695864 1.144824 1.909729 0.000000 0.000000 0.000000 
2.709358 0.255469 1.970343 0.000000 0.000000 0.000000 
2.848855 0.283079 1.799731 0.000000 0.000000 0.000000 
2.712281 1.140050 1.781699 0.000000 0.000000 0.000000 
2.600233 0.810337 1.711895 0.000000 0.000000 0.000000 
2.608238 0.801301 1.621250 0.000000 0.000000 0.000000 
3.011385 0.702598 2.359469 0.000000 0.000000 0.000000 
2.688915 0.681392 2.215069 0.000000 0.000000 0.000000 
2.660139 0.888396 2.005280 0.000000 0.000000 0.000000 
2.587460 0.736832 1.990125 0.000000 0.000000 0.000000 
3.081510 0.919019 1.985716 0.000000 0.000000 0.000000 
2.597991 0.811479 1.875645 0.000000 0.000000 0.000000 
2.617398 0.870679 1.829278 0.000000 0.000000 0.000000 
3.078581 0.902499 1.704445 0.000000 0.000000 0.000000 
2.666569 0.813604 2.152658 0.000000 0.000000 0.000000 
2.528717 0.496718 2.144779 0.000000 0.000000 0.000000 
2.888404 1.083920 2.083714 0.000000 0.000000 0.000000 
2.607999 0.850379 2.062611 0.000000 0.000000 0.000000 
2.571569 0.729503 2.005209 0.000000 0.000000 0.000000 
2.916432 0.533556 1.883567 0.000000 0.000000 0.000000 
2.510351 1.198572 1.864455 0.000000 0.000000 0.000000 
2.973516 0.767406 1.803630 0.000000 0.000000 0.000000 
2.865004 0.333594 1.788664 0.000000 0.000000 0.000000 
2.870983 0.535169 1.720968 0.000000 0.000000 0.000000 
2.679744 0.602963 1.709486 0.000000 0.000000 0.000000 
2.618700 0.858578 1.694008 0.000000 0.000000 0.000000 
2.580560 0.678587 2.275729 0.000000 0.000000 0.000000 
2.490042 1.203549 2.101947 0.000000 0.000000 0.000000 
2.993178 0.644798 2.418443 0.000000 0.000000 0.000000 
3.072935 0.907972 2.354656 0.000000 0.000000 0.000000 
2.898143 0.593111 2.356271 0.000000 0.000000 0.000000 
2.543852 0.572511 2.209264 0.000000 0.000000 0.000000 
2.847085 0.294481 1.988306 0.000000 0.000000 0.000000 
3.096022 0.979553 1.913823 0.000000 0.000000 0.000000 
2.614908 0.854857 1.885805 0.000000 0.000000 0.000000 
2.592636 1.173522 1.828906 0.000000 0.000000 0.000000 
2.974985 0.538912 2.536501 0.000000 0.000000 0.000000 
2.838706 1.099106 2.287324 0.000000 0.000000 0.000000 
3.055221 0.855254 2.383874 0.000000 0.000000 0.000000 
2.519332 0.504755 2.225627 0.000000 0.000000 0.000000 
3.075006 0.921840 2.301898 0.000000 0.000000 0.000000 
2.543217 0.561895 2.198184 0.000000 0.000000 0.000000 
2.631236 0.674367 2.153620 0.000000 0.000000 0.000000 
2.480855 1.206067 2.032272 0.000000 0.000000 0.000000 
2.515309 1.194211 2.009413 0.000000 0.000000 0.000000 
2.504506 1.198446 1.992357 0.000000 0.000000 0.000000 
2.688327 1.143167 2.017486 0.000000 0.000000 0.000000 
3.076086 0.909144 2.080165 0.000000 0.000000 0.000000 
2.904551 0.471571 1.883055 0.000000 0.000000 0.000000 
3.079619 0.912197 1.832276 0.000000 0.000000 0.000000 
3.049783 0.811607 1.834957 0.000000 0.000000 0.000000 
2.641130 0.278846 1.787861 0.000000 0.000000 0.000000 
2.619424 0.874645 1.752526 0.000000 0.000000 0.000000 
2.689627 0.582097 1.712484 0.000000 0.000000 0.000000 
3.028526 0.769762 2.585387 0.000000 0.000000 0.000000 
3.007934 0.692976 2.591963 0.000000 0.000000 0.000000 
2.615809 1.167454 2.256226 0.000000 0.000000 0.000000 
2.554914 0.630777 2.340483 0.000000 0.000000 0.000000 
2.516384 0.538089 2.341301 0.000000 0.000000 0.000000 
3.075252 0.914727 2.493807 0.000000 0.000000 0.000000 
2.518183 0.521226 2.318467 0.000000 0.000000 0.000000 
2.600170 0.691880 2.240331 0.000000 0.000000 0.000000 
2.516651 1.194762 2.114246 0.000000 0.000000 0.000000 
2.513501 0.549575 2.059493 0.000000 0.000000 0.000000 
3.057675 0.844866 2.070686 0.000000 0.000000 0.000000 
2.541867 0.585472 2.012765 0.000000 0.000000 0.000000 
2.486504 1.204686 1.953001 0.000000 0.000000 0.000000 
2.528862 1.192807 1.922516 0.000000 0.000000 0.000000 
2.501562 1.200920 1.895575 0.000000 0.000000 0.000000 
3.073867 0.899184 1.723313 0.000000 0.000000 0.000000 
2.916061 0.709793 2.656460 0.000000 0.000000 0.000000 
3.009094 0.776558 2.652744 0.000000 0.000000 0.000000 
2.542559 1.187535 2.224183 0.000000 0.000000 0.000000 
2.637602 0.697339 2.135709 0.000000 0.000000 0.000000 
2.561260 0.569597 2.131564 0.000000 0.000000 0.000000 
2.646339 0.890024 2.024449 0.000000 0.000000 0.000000 
2.559999 0.658908 2.003446 0.000000 0.000000 0.000000 
2.896839 0.529976 1.987258 0.000000 0.000000 0.000000 
2.639016 0.319697 1.986579 0.000000 0.000000 0.000000 
3.098030 0.990164 1.814013 0.000000 0.000000 0.000000 
3.050299 0.825051 1.813397 0.000000 0.000000 0.000000 
2.659647 1.157918 1.858348 0.000000 0.000000 0.000000 
2.608596 0.844927 1.829769 0.000000 0.000000 0.000000 
2.906407 1.062950 2.668365 0.000000 0.000000 0.000000 
2.596902 0.186018 2.654578 0.000000 0.000000 0.000000 
3.050459 0.837499 2.554250 0.000000 0.000000 0.000000 
2.925758 1.074666 2.378181 0.000000 0.000000 0.000000 
3.084753 1.019940 2.370273 0.000000 0.000000 0.000000 
2.614978 0.834826 2.085740 0.000000 0.000000 0.000000 
2.936517 1.072491 1.939747 0.000000 0.000000 0.000000 
2.535769 1.192178 1.894879 0.000000 0.000000 0.000000 
2.410258 1.227742 2.210123 0.000000 0.000000 0.000000 
2.602298 1.168977 2.257305 0.000000 0.000000 0.000000 
2.967873 1.063574 2.396143 0.000000 0.000000 0.000000 
3.035304 0.788154 2.385316 0.000000 0.000000 0.000000 
2.566727 0.645739 2.254367 0.000000 0.000000 0.000000 
3.055506 0.856804 2.223239 0.000000 0.000000 0.000000 
2.553435 0.569897 2.151470 0.000000 0.000000 0.000000 
3.044616 0.798238 2.112964 0.000000 0.000000 0.000000 
2.897922 0.474321 1.905114 0.000000 0.000000 0.000000 
2.855721 0.342044 1.838927 0.000000 0.000000 0.000000 
2.631679 1.161874 2.369460 0.000000 0.000000 0.000000 
2.802099 1.109752 2.480657 0.000000 0.000000 0.000000 
2.471800 1.210119 2.195115 0.000000 0.000000 0.000000 
2.464027 1.213626 2.174713 0.000000 0.000000 0.000000 
2.720292 0.019389 2.464473 0.000000 0.000000 0.000000 
2.582023 0.629896 2.138990 0.000000 0.000000 0.000000 
2.684716 1.143462 2.066016 0.000000 0.000000 0.000000 
3.064488 0.867083 2.120195 0.000000 0.000000 0.000000 
3.024570 0.780690 2.015580 0.000000 0.000000 0.000000 
2.963611 0.990744 2.654315 0.000000 0.000000 0.000000 
2.990498 0.625128 2.649131 0.000000 0.000000 0.000000 
2.566484 0.636584 2.260402 0.000000 0.000000 0.000000 
2.540313 0.559452 2.210377 0.000000 0.000000 0.000000 
3.058475 0.849163 2.170337 0.000000 0.000000 0.000000 
3.047105 0.793368 2.137135 0.000000 0.000000 0.000000 
2.642932 0.882785 2.043429 0.000000 0.000000 0.000000 
3.043924 0.785202 1.996174 0.000000 0.000000 0.000000 
2.735946 0.882142 2.666061 0.000000 0.000000 0.000000 
2.501369 1.200089 2.319629 0.000000 0.000000 0.000000 
2.529173 0.173121 2.660940 0.000000 0.000000 0.000000 
2.629115 1.162441 2.294122 0.000000 0.000000 0.000000 
3.054841 0.842713 2.574967 0.000000 0.000000 0.000000 
2.768682 0.123209 2.658818 0.000000 0.000000 0.000000 
3.088125 0.969129 2.388529 0.000000 0.000000 0.000000 
2.534530 0.479430 2.094286 0.000000 0.000000 0.000000 
2.614238 0.881067 2.026296 0.000000 0.000000 0.000000 
2.987317 0.773152 1.908427 0.000000 0.000000 0.000000 
3.091785 0.985506 1.872875 0.000000 0.000000 0.000000 
2.569088 1.182629 2.387281 0.000000 0.000000 0.000000 
2.937541 0.438654 2.652015 0.000000 0.000000 0.000000 
2.647801 0.007112 2.662190 0.000000 0.000000 0.000000 
2.695255 1.138594 2.255117 0.000000 0.000000 0.000000 
2.571048 0.654135 2.305525 0.000000 0.000000 0.000000 
3.039717 0.802519 2.293523 0.000000 0.000000 0.000000 
3.086878 0.961895 2.100528 0.000000 0.000000 0.000000 
2.531489 0.580671 2.020354 0.000000 0.000000 0.000000 
3.066962 1.037169 1.970949 0.000000 0.000000 0.000000 
2.461411 0.361587 1.977475 0.000000 0.000000 0.000000 
2.421551 0.486472 2.661462 0.000000 0.000000 0.000000 
2.465109 0.082806 2.666331 0.000000 0.000000 0.000000 
2.870502 0.380858 2.655279 0.000000 0.000000 0.000000 
2.682956 -0.031731 2.661126 0.000000 0.000000 0.000000 
2.647314 0.701489 2.325670 0.000000 0.000000 0.000000 
2.754764 1.115136 2.184426 0.000000 0.000000 0.000000 
2.781211 -0.079731 2.263590 0.000000 0.000000 0.000000 
2.461471 0.374305 1.957555 0.000000 0.000000 0.000000 
2.860332 1.087551 2.345514 0.000000 0.000000 0.000000 
2.742388 -0.256397 2.583789 0.000000 0.000000 0.000000 
2.500715 0.452874 2.276587 0.000000 0.000000 0.000000 
3.083264 0.958734 2.275013 0.000000 0.000000 0.000000 
2.501385 0.431184 2.250480 0.000000 0.000000 0.000000 
2.687157 -0.517121 2.404513 0.000000 0.000000 0.000000 
3.070206 0.902416 2.076331 0.000000 0.000000 0.000000 
2.930168 1.064722 2.364653 0.000000 0.000000 0.000000 
3.090190 0.982670 2.448148 0.000000 0.000000 0.000000 
2.988364 0.621882 2.485338 0.000000 0.000000 0.000000 
2.637811 -0.547710 2.660975 0.000000 0.000000 0.000000 
3.079662 0.953784 2.236108 0.000000 0.000000 0.000000 
3.044785 0.825388 2.182348 0.000000 0.000000 0.000000 
2.454696 0.345643 2.058982 0.000000 0.000000 0.000000 
3.086720 0.953287 1.865680 0.000000 0.000000 0.000000 
2.964021 0.557674 2.391892 0.000000 0.000000 0.000000 
2.700515 0.681792 2.261233 0.000000 0.000000 0.000000 
3.088577 0.976417 1.876897 0.000000 0.000000 0.000000 
2.718302 0.272870 1.888128 0.000000 0.000000 0.000000 
2.719279 -0.335939 1.866659 0.000000 0.000000 0.000000 
2.935022 0.680356 2.661357 0.000000 0.000000 0.000000 
2.772852 0.201101 2.658298 0.000000 0.000000 0.000000 
3.035753 0.806086 2.413814 0.000000 0.000000 0.000000 
3.091738 0.987397 2.172204 0.000000 0.000000 0.000000 
2.505394 0.460867 2.174567 0.000000 0.000000 0.000000 
2.547797 0.539643 2.112561 0.000000 0.000000 0.000000 
2.642318 0.883718 2.055054 0.000000 0.000000 0.000000 
2.770510 0.253769 1.949107 0.000000 0.000000 0.000000 
2.988807 0.667061 2.646101 0.000000 0.000000 0.000000 
3.016991 0.752980 2.582066 0.000000 0.000000 0.000000 
3.060847 1.018101 2.459478 0.000000 0.000000 0.000000 
2.513799 0.517932 2.213321 0.000000 0.000000 0.000000 
3.062771 0.893467 2.154971 0.000000 0.000000 0.000000 
3.042743 0.829708 2.094891 0.000000 0.000000 0.000000 
2.604706 0.867058 2.009496 0.000000 0.000000 0.000000 
2.907198 0.794034 1.940036 0.000000 0.000000 0.000000 
2.466997 0.412579 1.882573 0.000000 0.000000 0.000000 
2.606302 0.856774 1.853828 0.000000 0.000000 0.000000 
3.057256 0.896825 2.516681 0.000000 0.000000 0.000000 
2.985446 0.639663 2.389964 0.000000 0.000000 0.000000 
3.081741 0.994112 2.288106 0.000000 0.000000 0.000000 
2.497683 0.446460 2.266459 0.000000 0.000000 0.000000 
2.580094 0.658737 2.107822 0.000000 0.000000 0.000000 
3.094198 1.028365 2.097068 0.000000 0.000000 0.000000 
3.036888 0.802497 2.052094 0.000000 0.000000 0.000000 
2.890264 0.471845 1.894413 0.000000 0.000000 0.000000 
2.854398 0.357612 1.894003 0.000000 0.000000 0.000000 
2.461185 0.362490 1.918131 0.000000 0.000000 0.000000 
2.998919 0.772746 1.864090 0.000000 0.000000 0.000000 
3.024783 0.767071 1.709890 0.000000 0.000000 0.000000 
2.750022 0.667299 2.362109 0.000000 0.000000 0.000000 
2.933007 0.781740 1.697090 0.000000 0.000000 0.000000 
2.999138 0.703365 2.529619 0.000000 0.000000 0.000000 
3.058731 0.904330 2.211476 0.000000 0.000000 0.000000 
2.576965 0.853666 2.079940 0.000000 0.000000 0.000000 
2.590137 0.814305 2.003803 0.000000 0.000000 0.000000 
2.565737 -0.040452 2.063947 0.000000 0.000000 0.000000 
2.838724 0.296668 1.979519 0.000000 0.000000 0.000000 
2.679961 0.282476 1.910325 0.000000 0.000000 0.000000 
2.463221 0.398948 1.920357 0.000000 0.000000 0.000000 
2.447011 0.375728 1.920625 0.000000 0.000000 0.000000 
2.465378 0.403781 1.817842 0.000000 0.000000 0.000000 
3.087979 0.986816 1.711905 0.000000 0.000000 0.000000 
2.523067 0.569656 2.303670 0.000000 0.000000 0.000000 
3.045528 0.855600 2.346714 0.000000 0.000000 0.000000 
3.038961 0.833303 2.188056 0.000000 0.000000 0.000000 
2.493767 0.409289 2.173713 0.000000 0.000000 0.000000 
2.654570 -0.580311 2.403979 0.000000 0.000000 0.000000 
2.544453 0.739476 2.072017 0.000000 0.000000 0.000000 
2.890244 0.822769 2.077299 0.000000 0.000000 0.000000 
2.486389 0.489496 2.050843 0.000000 0.000000 0.000000 
2.749557 0.842264 1.963029 0.000000 0.000000 0.000000 
2.848015 0.345168 1.910487 0.000000 0.000000 0.000000 
2.604207 0.872787 1.825549 0.000000 0.000000 0.000000 
2.659488 0.509416 1.775831 0.000000 0.000000 0.000000 
2.787597 0.273057 1.729825 0.000000 0.000000 0.000000 
3.018915 0.768135 1.721753 0.000000 0.000000 0.000000 
3.067374 0.913621 1.705119 0.000000 0.000000 0.000000 
2.826553 0.519758 1.658785 0.000000 0.000000 0.000000 
3.081028 0.981726 2.374961 0.000000 0.000000 0.000000 
2.536553 0.572078 2.182117 0.000000 0.000000 0.000000 
2.557699 0.608060 2.152014 0.000000 0.000000 0.000000 
3.048525 0.859759 2.034127 0.000000 0.000000 0.000000 
2.620995 -0.599032 1.934401 0.000000 0.000000 0.000000 
2.612246 0.881487 1.846872 0.000000 0.000000 0.000000 
2.656328 -0.534796 1.722337 0.000000 0.000000 0.000000 
2.608951 0.871187 1.827341 0.000000 0.000000 0.000000 
2.731597 0.844937 1.785681 0.000000 0.000000 0.000000 
2.584213 0.311658 1.678184 0.000000 0.000000 0.000000 
2.514941 0.362486 1.673120 0.000000 0.000000 0.000000 
2.569336 0.662179 2.271506 0.000000 0.000000 0.000000 
3.043403 0.848608 2.190059 0.000000 0.000000 0.000000 
3.057735 0.894697 2.062335 0.000000 0.000000 0.000000 
2.558120 0.708440 2.018981 0.000000 0.000000 0.000000 
2.604026 -0.872420 1.599216 0.000000 0.000000 0.000000 
3.071810 0.924401 1.718468 0.000000 0.000000 0.000000 
2.945825 0.560524 2.430908 0.000000 0.000000 0.000000 
2.438058 -0.459045 2.680662 0.000000 0.000000 0.000000 
2.638377 0.679875 2.213305 0.000000 0.000000 0.000000 
2.516024 0.536710 2.230065 0.000000 0.000000 0.000000 
2.644449 0.810878 2.127971 0.000000 0.000000 0.000000 
2.669262 -0.522186 2.485326 0.000000 0.000000 0.000000 
2.596154 -0.776248 1.985850 0.000000 0.000000 0.000000 
2.702746 0.848222 1.837558 0.000000 0.000000 0.000000 
2.833565 0.808627 1.771938 0.000000 0.000000 0.000000 
2.662004 0.586066 1.742563 0.000000 0.000000 0.000000 
3.048881 0.845592 1.660438 0.000000 0.000000 0.000000 
2.783744 0.824835 1.708504 0.000000 0.000000 0.000000 
3.027661 0.800240 2.257487 0.000000 0.000000 0.000000 
3.000465 0.712711 2.279854 0.000000 0.000000 0.000000 
2.684588 0.864465 2.093919 0.000000 0.000000 0.000000 
2.691597 0.871379 2.071681 0.000000 0.000000 0.000000 
2.986425 0.763506 1.984867 0.000000 0.000000 0.000000 
2.515997 -1.013782 2.133508 0.000000 0.000000 0.000000 
3.071530 0.927666 2.237771 0.000000 0.000000 0.000000 
2.595583 -0.751056 2.448770 0.000000 0.000000 0.000000 
2.786540 0.847080 2.076083 0.000000 0.000000 0.000000 
2.581625 0.794026 2.060031 0.000000 0.000000 0.000000 
2.524162 0.600446 2.017668 0.000000 0.000000 0.000000 
3.025355 0.775734 1.998744 0.000000 0.000000 0.000000 
3.055963 0.876893 1.757839 0.000000 0.000000 0.000000 
2.618654 0.385388 1.663215 0.000000 0.000000 0.000000 
2.586126 0.416615 1.643482 0.000000 0.000000 0.000000 
2.507493 0.371997 1.589331 0.000000 0.000000 0.000000 
2.706530 0.834896 1.612319 0.000000 0.000000 0.000000 
2.544617 -0.943496 2.583850 0.000000 0.000000 0.000000 
2.622142 -0.629955 2.454813 0.000000 0.000000 0.000000 
3.025887 0.783884 2.143804 0.000000 0.000000 0.000000 
3.023420 0.767240 2.115992 0.000000 0.000000 0.000000 
2.843198 0.331726 1.908612 0.000000 0.000000 0.000000 
3.044373 0.831067 1.777335 0.000000 0.000000 0.000000 
2.628921 0.573466 1.710266 0.000000 0.000000 0.000000 
2.515023 -1.038876 1.475460 0.000000 0.000000 0.000000 
2.376808 1.238885 1.840634 0.000000 0.000000 0.000000 
2.595008 0.517895 1.649680 0.000000 0.000000 0.000000 
2.523887 0.436728 1.617451 0.000000 0.000000 0.000000 
2.595542 0.828448 1.672473 0.000000 0.000000 0.000000 
2.952532 0.624759 2.277549 0.000000 0.000000 0.000000 
3.014272 0.753835 2.217767 0.000000 0.000000 0.000000 
2.634704 0.847268 2.111364 0.000000 0.000000 0.000000 
2.582066 0.647401 2.162201 0.000000 0.000000 0.000000 
2.579868 0.813838 2.069540 0.000000 0.000000 0.000000 
2.585796 0.803796 2.031274 0.000000 0.000000 0.000000 
2.502985 0.541710 2.049052 0.000000 0.000000 0.000000 
2.377740 1.240493 1.858720 0.000000 0.000000 0.000000 
2.843169 0.800080 1.745539 0.000000 0.000000 0.000000 
2.646447 0.866303 1.754970 0.000000 0.000000 0.000000 
3.033821 0.797068 1.598380 0.000000 0.000000 0.000000 
2.491638 0.398981 1.564294 0.000000 0.000000 0.000000 
2.664916 0.864941 2.030686 0.000000 0.000000 0.000000 
2.577200 -0.809226 2.352859 0.000000 0.000000 0.000000 
2.559554 0.718730 2.007582 0.000000 0.000000 0.000000 
2.694972 0.268803 2.030825 0.000000 0.000000 0.000000 
2.814593 0.809049 1.710489 0.000000 0.000000 0.000000 
2.379956 1.243738 1.813034 0.000000 0.000000 0.000000 
2.380968 1.238006 1.811637 0.000000 0.000000 0.000000 
2.525634 0.486479 1.625921 0.000000 0.000000 0.000000 
2.608150 0.861737 1.644916 0.000000 0.000000 0.000000 
3.032956 0.779511 1.484987 0.000000 0.000000 0.000000 
2.598825 0.767210 1.576110 0.000000 0.000000 0.000000 
3.038735 0.791450 1.390883 0.000000 0.000000 0.000000 
2.987663 0.779537 2.096305 0.000000 0.000000 0.000000 
2.566690 0.306055 1.898196 0.000000 0.000000 0.000000 
2.494415 -1.060846 1.834454 0.000000 0.000000 0.000000 
2.386284 1.239465 1.835847 0.000000 0.000000 0.000000 
3.036193 0.813079 1.751761 0.000000 0.000000 0.000000 
3.033995 0.814633 1.692333 0.000000 0.000000 0.000000 
2.524704 0.601662 2.005167 0.000000 0.000000 0.000000 
3.072020 0.893119 2.001341 0.000000 0.000000 0.000000 
2.900163 0.782100 1.867576 0.000000 0.000000 0.000000 
2.533980 -0.928553 1.915312 0.000000 0.000000 0.000000 
3.026903 0.766069 1.750347 0.000000 0.000000 0.000000 
2.608841 0.860389 1.781367 0.000000 0.000000 0.000000 
2.635692 -0.616298 1.376294 0.000000 0.000000 0.000000 
2.755316 0.829207 1.550951 0.000000 0.000000 0.000000 
2.366612 1.230694 1.751272 0.000000 0.000000 0.000000 
2.656034 -0.583423 0.875108 0.000000 0.000000 0.000000 
2.496442 0.382364 1.309785 0.000000 0.000000 0.000000 
2.505600 0.533660 2.013372 0.000000 0.000000 0.000000 
3.047369 0.839487 1.951449 0.000000 0.000000 0.000000 
2.740366 0.835531 1.903950 0.000000 0.000000 0.000000 
3.057374 0.869922 1.842577 0.000000 0.000000 0.000000 
2.620767 -0.534303 1.829866 0.000000 0.000000 0.000000 
2.617411 0.871999 1.579795 0.000000 0.000000 0.000000 
2.741176 0.833525 1.458785 0.000000 0.000000 0.000000 
2.554559 0.317182 1.924867 0.000000 0.000000 0.000000 
3.021171 0.758271 1.883783 0.000000 0.000000 0.000000 
3.010384 0.750584 1.855774 0.000000 0.000000 0.000000 
2.631685 -0.510790 1.913848 0.000000 0.000000 0.000000 
2.606804 0.846342 1.763592 0.000000 0.000000 0.000000 
2.546649 0.313819 1.407806 0.000000 0.000000 0.000000 
2.615890 0.867636 1.519290 0.000000 0.000000 0.000000 
3.033619 0.791404 1.255062 0.000000 0.000000 0.000000 
2.697413 0.562022 1.243682 0.000000 0.000000 0.000000 
2.660355 0.866403 1.891273 0.000000 0.000000 0.000000 
2.790754 0.281805 1.990204 0.000000 0.000000 0.000000 
3.044713 0.833351 1.665612 0.000000 0.000000 0.000000 
3.042207 0.821746 1.635355 0.000000 0.000000 0.000000 
3.033825 0.794675 1.633217 0.000000 0.000000 0.000000 
2.863027 0.795755 1.626508 0.000000 0.000000 0.000000 
3.079937 0.942097 1.411359 0.000000 0.000000 0.000000 
2.685246 0.274398 1.305796 0.000000 0.000000 0.000000 
3.044147 0.826879 1.349600 0.000000 0.000000 0.000000 
2.563746 0.313659 1.241712 0.000000 0.000000 0.000000 
2.544024 -0.965108 0.466465 0.000000 0.000000 0.000000 
2.538230 0.324629 1.772372 0.000000 0.000000 0.000000 
2.601445 0.828923 1.652417 0.000000 0.000000 0.000000 
2.646395 0.868152 1.610633 0.000000 0.000000 0.000000 
2.481092 0.410674 1.553829 0.000000 0.000000 0.000000 
2.746204 0.830515 1.404971 0.000000 0.000000 0.000000 
2.681823 0.854268 1.437351 0.000000 0.000000 0.000000 
2.524562 0.404884 1.245994 0.000000 0.000000 0.000000 
2.489713 0.427018 1.163872 0.000000 0.000000 0.000000 
2.625003 0.878254 1.793295 0.000000 0.000000 0.000000 
2.598759 0.842956 1.778466 0.000000 0.000000 0.000000 
2.657193 0.284873 1.776303 0.000000 0.000000 0.000000 
2.800002 0.818733 1.624796 0.000000 0.000000 0.000000 
2.594031 -0.741172 1.470323 0.000000 0.000000 0.000000 
2.545720 -0.888321 1.333550 0.000000 0.000000 0.000000 
2.476030 0.412763 1.505527 0.000000 0.000000 0.000000 
2.563125 0.313267 1.394210 0.000000 0.000000 0.000000 
3.067461 0.906171 1.224323 0.000000 0.000000 0.000000 
2.805414 0.815525 1.738988 0.000000 0.000000 0.000000 
2.604940 0.857744 1.637400 0.000000 0.000000 0.000000 
3.060839 0.890396 1.549587 0.000000 0.000000 0.000000 
2.594559 0.827261 1.616082 0.000000 0.000000 0.000000 
2.629922 0.285578 1.535025 0.000000 0.000000 0.000000 
2.971869 0.767260 1.424028 0.000000 0.000000 0.000000 
3.017193 0.759006 1.376657 0.000000 0.000000 0.000000 
2.616457 0.873267 1.519245 0.000000 0.000000 0.000000 
2.856872 0.417009 1.286551 0.000000 0.000000 0.000000 
3.057420 0.875625 1.332170 0.000000 0.000000 0.000000 
2.651887 0.871551 1.366473 0.000000 0.000000 0.000000 
3.082419 0.959783 1.183862 0.000000 0.000000 0.000000 
2.553046 -0.848223 0.280090 0.000000 0.000000 0.000000 
3.073797 0.923015 1.014311 0.000000 0.000000 0.000000 
2.635473 0.569918 1.750365 0.000000 0.000000 0.000000 
2.588480 0.419423 1.655972 0.000000 0.000000 0.000000 
2.462219 0.392998 1.588642 0.000000 0.000000 0.000000 
2.722361 0.840989 1.578771 0.000000 0.000000 0.000000 
2.550881 0.318894 1.536876 0.000000 0.000000 0.000000 
3.057107 0.877130 1.498983 0.000000 0.000000 0.000000 
2.686475 0.267822 1.471508 0.000000 0.000000 0.000000 
2.930789 0.777496 1.321684 0.000000 0.000000 0.000000 
2.639339 0.498483 1.258552 0.000000 0.000000 0.000000 
3.064504 0.905737 1.141571 0.000000 0.000000 0.000000 
2.626598 0.872820 1.334787 0.000000 0.000000 0.000000 
2.614931 -0.692028 0.413808 0.000000 0.000000 0.000000 
3.090738 1.024722 1.000442 0.000000 0.000000 0.000000 
2.576777 0.506045 1.637395 0.000000 0.000000 0.000000 
3.048011 0.851778 1.557969 0.000000 0.000000 0.000000 
3.066952 0.915044 1.534892 0.000000 0.000000 0.000000 
2.456071 0.334949 1.562030 0.000000 0.000000 0.000000 
2.594679 0.789643 1.572441 0.000000 0.000000 0.000000 
2.832733 0.294214 1.425980 0.000000 0.000000 0.000000 
2.594386 0.812860 1.449706 0.000000 0.000000 0.000000 
2.634928 0.874445 1.432699 0.000000 0.000000 0.000000 
2.663468 0.544381 1.281547 0.000000 0.000000 0.000000 
2.575544 -0.846869 0.665006 0.000000 0.000000 0.000000 
2.529788 0.557063 1.240649 0.000000 0.000000 0.000000 
2.543700 -0.941469 0.556260 0.000000 0.000000 0.000000 
3.029155 0.783364 1.073120 0.000000 0.000000 0.000000 
3.023896 0.770560 1.026533 0.000000 0.000000 0.000000 
2.507824 0.486557 1.070200 0.000000 0.000000 0.000000 
3.094366 0.991540 0.898796 0.000000 0.000000 0.000000 
2.492389 0.431739 0.916603 0.000000 0.000000 0.000000 
2.490264 -0.449713 0.286278 0.000000 0.000000 0.000000 
2.826490 0.811711 1.582321 0.000000 0.000000 0.000000 
2.588166 0.819082 1.592680 0.000000 0.000000 0.000000 
2.793398 0.819986 1.394881 0.000000 0.000000 0.000000 
2.725961 0.412101 1.304345 0.000000 0.000000 0.000000 
2.614447 0.869091 1.347467 0.000000 0.000000 0.000000 
3.034501 0.806305 1.057086 0.000000 0.000000 0.000000 
3.061341 0.886887 1.042549 0.000000 0.000000 0.000000 
2.617908 -0.702435 0.439514 0.000000 0.000000 0.000000 
2.487707 -0.955643 0.283593 0.000000 0.000000 0.000000 
2.686910 0.853017 1.159979 0.000000 0.000000 0.000000 
2.485145 0.418539 1.018738 0.000000 0.000000 0.000000 
2.566502 0.671529 1.010277 0.000000 0.000000 0.000000 
2.472716 0.385846 0.768517 0.000000 0.000000 0.000000 
2.765124 0.250898 1.418586 0.000000 0.000000 0.000000 
2.610921 0.293978 1.420767 0.000000 0.000000 0.000000 
2.702847 0.847006 1.360291 0.000000 0.000000 0.000000 
2.515862 -0.446748 0.274897 0.000000 0.000000 0.000000 
2.807455 0.253046 1.523262 0.000000 0.000000 0.000000 
2.600319 0.830124 1.550557 0.000000 0.000000 0.000000 
2.757812 0.253524 1.464748 0.000000 0.000000 0.000000 
2.605734 0.296975 1.368029 0.000000 0.000000 0.000000 
2.877284 0.794084 1.263386 0.000000 0.000000 0.000000 
3.083096 0.967943 1.149055 0.000000 0.000000 0.000000 
2.771355 0.823407 1.049767 0.000000 0.000000 0.000000 
2.529076 0.544859 1.022808 0.000000 0.000000 0.000000 
3.056567 0.867412 0.515983 0.000000 0.000000 0.000000 
2.560931 0.645303 0.755059 0.000000 0.000000 0.000000 
2.677478 0.271420 1.480452 0.000000 0.000000 0.000000 
2.637554 0.872490 1.528656 0.000000 0.000000 0.000000 
2.673008 0.278212 1.389990 0.000000 0.000000 0.000000 
3.050822 0.850319 1.360756 0.000000 0.000000 0.000000 
2.711107 0.470545 1.324985 0.000000 0.000000 0.000000 
2.593950 -0.747485 1.062289 0.000000 0.000000 0.000000 
2.595985 0.810595 1.414535 0.000000 0.000000 0.000000 
2.569255 0.346920 1.230569 0.000000 0.000000 0.000000 
2.612910 0.867072 1.266521 0.000000 0.000000 0.000000 
2.820448 0.803737 0.987435 0.000000 0.000000 0.000000 
2.589993 0.744209 1.088438 0.000000 0.000000 0.000000 
2.574663 0.687793 0.802903 0.000000 0.000000 0.000000 
2.541739 0.587733 0.623709 0.000000 0.000000 0.000000 
2.506607 0.483376 0.547939 0.000000 0.000000 0.000000 
2.704778 0.263430 1.317889 0.000000 0.000000 0.000000 
3.032991 0.798355 1.204530 0.000000 0.000000 0.000000 
2.502502 0.457670 1.014952 0.000000 0.000000 0.000000 
2.838227 0.802774 0.812499 0.000000 0.000000 0.000000 
2.321728 -0.040725 0.289511 0.000000 0.000000 0.000000 
2.597258 0.793228 1.444490 0.000000 0.000000 0.000000 
2.747887 0.572050 1.262156 0.000000 0.000000 0.000000 
2.616960 0.871032 1.365033 0.000000 0.000000 0.000000 
3.029927 0.787546 1.115327 0.000000 0.000000 0.000000 
3.068252 0.909626 1.042022 0.000000 0.000000 0.000000 
2.619452 0.867282 1.196946 0.000000 0.000000 0.000000 
3.035787 0.856582 0.276750 0.000000 0.000000 0.000000 
2.414733 0.384200 0.278619 0.000000 0.000000 0.000000 
3.059236 0.884229 1.194459 0.000000 0.000000 0.000000 
2.483978 0.408212 1.165221 0.000000 0.000000 0.000000 
2.559632 0.690829 1.225424 0.000000 0.000000 0.000000 
2.416035 -0.675715 0.398724 0.000000 0.000000 0.000000 
3.081066 0.955860 0.878046 0.000000 0.000000 0.000000 
2.537716 -0.240857 0.282540 0.000000 0.000000 0.000000 
2.389134 -0.254376 0.283443 0.000000 0.000000 0.000000 
2.424801 0.304467 0.284373 0.000000 0.000000 0.000000 
2.572889 1.180635 1.065136 0.000000 0.000000 0.000000 
2.164683 0.282878 0.281192 0.000000 0.000000 0.000000 
2.514365 0.364885 1.273324 0.000000 0.000000 0.000000 
2.555210 0.670592 1.227113 0.000000 0.000000 0.000000 
2.521198 0.541462 1.157095 0.000000 0.000000 0.000000 
3.074594 0.933705 1.019700 0.000000 0.000000 0.000000 
2.547970 0.610934 1.082873 0.000000 0.000000 0.000000 
2.601477 0.825951 1.015358 0.000000 0.000000 0.000000 
3.068691 0.905310 0.614056 0.000000 0.000000 0.000000 
2.711369 0.842951 0.538322 0.000000 0.000000 0.000000 
2.559345 1.182460 1.063884 0.000000 0.000000 0.000000 
2.212528 0.416451 0.280534 0.000000 0.000000 0.000000 
3.047400 0.848925 1.262416 0.000000 0.000000 0.000000 
3.042233 0.820096 1.229086 0.000000 0.000000 0.000000 
3.021019 0.758993 1.156778 0.000000 0.000000 0.000000 
2.660424 0.866122 1.181773 0.000000 0.000000 0.000000 
3.055489 0.863801 0.979534 0.000000 0.000000 0.000000 
2.843565 0.802306 0.835762 0.000000 0.000000 0.000000 
2.605562 0.806409 0.984409 0.000000 0.000000 0.000000 
2.839889 0.826138 0.283628 0.000000 0.000000 0.000000 
2.788286 0.961861 0.282434 0.000000 0.000000 0.000000 
2.600360 0.824889 1.293685 0.000000 0.000000 0.000000 
2.625822 -0.634736 0.816530 0.000000 0.000000 0.000000 
2.967584 0.759885 1.113289 0.000000 0.000000 0.000000 
2.563412 0.654223 0.950262 0.000000 0.000000 0.000000 
2.229580 -0.358548 0.295269 0.000000 0.000000 0.000000 
2.501133 0.438981 0.627728 0.000000 0.000000 0.000000 
2.047368 -0.199826 0.301933 0.000000 0.000000 0.000000 
2.020744 0.221188 0.290936 0.000000 0.000000 0.000000 
2.887179 1.071135 0.297215 0.000000 0.000000 0.000000 
2.297478 -0.606638 0.543181 0.000000 0.000000 0.000000 
2.600104 0.777315 1.061753 0.000000 0.000000 0.000000 
2.472895 0.376833 0.844666 0.000000 0.000000 0.000000 
3.045771 0.817851 0.630593 0.000000 0.000000 0.000000 
2.596928 0.779734 0.799389 0.000000 0.000000 0.000000 
2.476959 0.137596 0.287949 0.000000 0.000000 0.000000 
2.651134 -0.531457 0.738421 0.000000 0.000000 0.000000 
2.640228 0.871599 1.179846 0.000000 0.000000 0.000000 
2.940689 0.771333 0.921890 0.000000 0.000000 0.000000 
2.473456 0.389258 0.879676 0.000000 0.000000 0.000000 
2.441211 -0.156530 0.295270 0.000000 0.000000 0.000000 
2.517495 0.502786 0.700727 0.000000 0.000000 0.000000 
2.148343 0.139087 0.292145 0.000000 0.000000 0.000000 
1.942158 0.515845 0.288855 0.000000 0.000000 0.000000 
3.027272 0.754169 1.032188 0.000000 0.000000 0.000000 
2.274334 -0.876112 0.293875 0.000000 0.000000 0.000000 
2.376081 0.158472 0.276526 0.000000 0.000000 0.000000 
2.084296 0.227148 0.275296 0.000000 0.000000 0.000000 
2.356816 0.837790 0.277085 0.000000 0.000000 0.000000 
2.571114 0.687186 1.117689 0.000000 0.000000 0.000000 
2.587951 0.738336 1.087102 0.000000 0.000000 0.000000 
2.554243 0.632088 1.048324 0.000000 0.000000 0.000000 
2.538455 -0.827992 0.263804 0.000000 0.000000 0.000000 
2.533316 0.562504 0.960903 0.000000 0.000000 0.000000 
2.593992 0.773333 0.893951 0.000000 0.000000 0.000000 
2.040700 -0.409903 0.316263 0.000000 0.000000 0.000000 
2.675586 0.862757 0.639176 0.000000 0.000000 0.000000 
1.834452 0.349339 0.301666 0.000000 0.000000 0.000000 
1.992213 0.655675 0.279865 0.000000 0.000000 0.000000 
2.574171 0.700560 1.086468 0.000000 0.000000 0.000000 
2.606990 0.821400 1.087928 0.000000 0.000000 0.000000 
2.588180 0.732335 0.990874 0.000000 0.000000 0.000000 
2.509156 0.489028 0.838287 0.000000 0.000000 0.000000 
2.364064 -0.136003 0.291366 0.000000 0.000000 0.000000 
2.972918 0.932092 0.284278 0.000000 0.000000 0.000000 
2.577071 0.715088 1.085684 0.000000 0.000000 0.000000 
2.556857 0.638589 0.743807 0.000000 0.000000 0.000000 
3.058789 0.889279 0.533153 0.000000 0.000000 0.000000 
2.213676 0.662013 0.280900 0.000000 0.000000 0.000000 
2.596740 0.799461 1.094454 0.000000 0.000000 0.000000 
2.516247 0.527078 0.972330 0.000000 0.000000 0.000000 
2.599761 0.804117 0.995038 0.000000 0.000000 0.000000 
2.539921 -0.004782 0.304939 0.000000 0.000000 0.000000 
2.358243 -0.051245 0.295902 0.000000 0.000000 0.000000 
2.498946 0.433360 0.520906 0.000000 0.000000 0.000000 
2.512925 0.479971 0.427995 0.000000 0.000000 0.000000 
2.617471 0.844991 0.713100 0.000000 0.000000 0.000000 
2.361370 0.324977 0.290066 0.000000 0.000000 0.000000 
2.195037 0.455787 0.285247 0.000000 0.000000 0.000000 
2.693758 1.146576 0.535240 0.000000 0.000000 0.000000 
2.704493 1.144135 0.404695 0.000000 0.000000 0.000000 
2.175930 0.787065 0.281579 0.000000 0.000000 0.000000 
1.932853 0.665418 0.284200 0.000000 0.000000 0.000000 
2.162367 -1.036840 0.315868 0.000000 0.000000 0.000000 
2.601536 0.802863 1.107550 0.000000 0.000000 0.000000 
2.310186 -0.033628 0.295608 0.000000 0.000000 0.000000 
2.342510 0.825481 0.280879 0.000000 0.000000 0.000000 
2.462349 -0.069094 0.294930 0.000000 0.000000 0.000000 
3.050833 0.855233 0.493904 0.000000 0.000000 0.000000 
2.610435 0.818595 0.545172 0.000000 0.000000 0.000000 
2.993243 0.949073 0.286163 0.000000 0.000000 0.000000 
2.098663 0.387326 0.286982 0.000000 0.000000 0.000000 
1.777877 0.481474 0.287502 0.000000 0.000000 0.000000 
2.063275 0.702315 0.280888 0.000000 0.000000 0.000000 
2.217721 0.841076 0.279325 0.000000 0.000000 0.000000 
2.412093 0.085559 0.287355 0.000000 0.000000 0.000000 
3.047079 0.796664 0.489533 0.000000 0.000000 0.000000 
1.856672 0.201581 0.283331 0.000000 0.000000 0.000000 
2.863528 0.869950 0.280542 0.000000 0.000000 0.000000 
1.718449 0.171028 0.281240 0.000000 0.000000 0.000000 
2.496030 0.697512 0.278027 0.000000 0.000000 0.000000 
1.834826 0.347473 0.284002 0.000000 0.000000 0.000000 
2.419677 0.933203 0.280247 0.000000 0.000000 0.000000 
2.346852 0.969951 0.281322 0.000000 0.000000 0.000000 
2.499833 -0.560621 0.283278 0.000000 0.000000 0.000000 
2.569619 0.675800 0.975977 0.000000 0.000000 0.000000 
2.548620 -0.131902 0.286777 0.000000 0.000000 0.000000 
2.326868 0.199244 0.284458 0.000000 0.000000 0.000000 
2.381653 0.477653 0.280495 0.000000 0.000000 0.000000 
2.585760 0.667264 0.300199 0.000000 0.000000 0.000000 
2.546633 1.056265 0.282883 0.000000 0.000000 0.000000 
2.265286 0.926223 0.280472 0.000000 0.000000 0.000000 
2.582615 -0.341120 0.297789 0.000000 0.000000 0.000000 
2.388912 -0.458484 0.293296 0.000000 0.000000 0.000000 
2.144823 -0.591163 0.298023 0.000000 0.000000 0.000000 
2.004885 -0.403638 0.293673 0.000000 0.000000 0.000000 
2.134600 -0.020216 0.292740 0.000000 0.000000 0.000000 
2.564541 0.649927 0.276703 0.000000 0.000000 0.000000 
2.468636 0.748558 0.278050 0.000000 0.000000 0.000000 
2.698323 1.064326 0.281415 0.000000 0.000000 0.000000 
1.963824 0.676374 0.279273 0.000000 0.000000 0.000000 
1.870232 0.622251 0.281397 0.000000 0.000000 0.000000 
1.715668 0.533130 0.285966 0.000000 0.000000 0.000000 
1.697430 0.600628 0.287106 0.000000 0.000000 0.000000 
2.575450 0.692815 0.982069 0.000000 0.000000 0.000000 
2.585943 0.729004 0.978353 0.000000 0.000000 0.000000 
2.591756 0.749628 0.935163 0.000000 0.000000 0.000000 
2.441465 0.731040 0.278120 0.000000 0.000000 0.000000 
2.296583 0.740601 0.276102 0.000000 0.000000 0.000000 
2.580123 0.689760 1.053452 0.000000 0.000000 0.000000 
2.002997 -0.706281 0.358964 0.000000 0.000000 0.000000 
2.510761 0.489078 0.920402 0.000000 0.000000 0.000000 
2.571864 0.677216 1.001386 0.000000 0.000000 0.000000 
2.566221 0.659804 0.964503 0.000000 0.000000 0.000000 
2.672515 -0.168968 0.290312 0.000000 0.000000 0.000000 
2.433055 0.574824 0.277318 0.000000 0.000000 0.000000 
2.175621 0.488316 0.280695 0.000000 0.000000 0.000000 
2.069213 0.479750 0.280541 0.000000 0.000000 0.000000 
2.538870 0.871517 0.279378 0.000000 0.000000 0.000000 
1.574526 0.349788 0.283354 0.000000 0.000000 0.000000 
2.534271 1.071140 0.283863 0.000000 0.000000 0.000000 
2.515692 0.502248 0.930081 0.000000 0.000000 0.000000 
2.062231 -0.383552 0.293989 0.000000 0.000000 0.000000 
1.707304 -0.133750 0.294966 0.000000 0.000000 0.000000 
2.005841 0.402789 0.283464 0.000000 0.000000 0.000000 
1.913659 0.537338 0.281694 0.000000 0.000000 0.000000 
2.017405 0.673872 0.279993 0.000000 0.000000 0.000000 
1.796813 0.598800 0.282295 0.000000 0.000000 0.000000 
2.534193 0.571961 0.988404 0.000000 0.000000 0.000000 
2.709214 -0.327040 0.299579 0.000000 0.000000 0.000000 
2.515372 0.493342 0.808771 0.000000 0.000000 0.000000 
2.333787 0.035524 0.283722 0.000000 0.000000 0.000000 
2.369937 0.181768 0.279718 0.000000 0.000000 0.000000 
2.562109 0.641205 0.678433 0.000000 0.000000 0.000000 
1.959042 0.049459 0.286048 0.000000 0.000000 0.000000 
1.928126 0.149807 0.284537 0.000000 0.000000 0.000000 
2.599654 0.772286 0.615960 0.000000 0.000000 0.000000 
2.032065 0.669843 0.277767 0.000000 0.000000 0.000000 
2.519249 0.506392 0.980525 0.000000 0.000000 0.000000 
2.767846 -0.166281 0.381415 0.000000 0.000000 0.000000 
2.750072 -0.171572 0.319163 0.000000 0.000000 0.000000 
1.834483 -0.535606 0.286903 0.000000 0.000000 0.000000 
2.543059 0.589184 0.889863 0.000000 0.000000 0.000000 
2.544065 0.592753 0.820312 0.000000 0.000000 0.000000 
2.343678 0.306182 0.280102 0.000000 0.000000 0.000000 
1.920538 0.276287 0.282200 0.000000 0.000000 0.000000 
2.610833 0.808744 0.464891 0.000000 0.000000 0.000000 
2.599461 0.768480 0.378845 0.000000 0.000000 0.000000 
1.547932 0.379451 0.286830 0.000000 0.000000 0.000000 
1.931544 0.669838 0.281030 0.000000 0.000000 0.000000 
2.431656 -0.161253 0.283322 0.000000 0.000000 0.000000 
2.510442 0.470975 0.541732 0.000000 0.000000 0.000000 
2.578602 0.693573 0.582873 0.000000 0.000000 0.000000 
2.209484 0.468020 0.276902 0.000000 0.000000 0.000000 
1.755275 0.409848 0.283219 0.000000 0.000000 0.000000 
1.729711 0.440385 0.283574 0.000000 0.000000 0.000000 
2.782134 -0.094407 0.562519 0.000000 0.000000 0.000000 
2.209530 -0.548963 0.288448 0.000000 0.000000 0.000000 
1.923960 -0.402824 0.295906 0.000000 0.000000 0.000000 
1.646329 -0.238016 0.288628 0.000000 0.000000 0.000000 
2.140156 0.149995 0.286228 0.000000 0.000000 0.000000 
1.657855 0.009448 0.291416 0.000000 0.000000 0.000000 
1.603652 0.235242 0.287239 0.000000 0.000000 0.000000 
1.940081 0.417131 0.279855 0.000000 0.000000 0.000000 
2.160318 0.551759 0.278461 0.000000 0.000000 0.000000 
2.630431 0.943265 0.276285 0.000000 0.000000 0.000000 
2.136472 0.738370 0.281513 0.000000 0.000000 0.000000 
1.567200 -1.005739 0.282530 0.000000 0.000000 0.000000 
2.526603 0.538621 0.888985 0.000000 0.000000 0.000000 
2.521876 -0.000416 0.287527 0.000000 0.000000 0.000000 
2.290600 0.039733 0.287230 0.000000 0.000000 0.000000 
2.533515 0.534008 0.538440 0.000000 0.000000 0.000000 
2.210628 0.294912 0.282061 0.000000 0.000000 0.000000 
1.704969 0.143509 0.289640 0.000000 0.000000 0.000000 
1.590266 0.239052 0.290107 0.000000 0.000000 0.000000 
1.782856 0.359609 0.285316 0.000000 0.000000 0.000000 
1.455384 0.225587 0.283764 0.000000 0.000000 0.000000 
1.591518 0.365615 0.287461 0.000000 0.000000 0.000000 
2.389353 0.764809 0.277937 0.000000 0.000000 0.000000 
2.735771 -0.272677 0.319689 0.000000 0.000000 0.000000 
2.657893 -0.355573 0.280043 0.000000 0.000000 0.000000 
2.074112 -0.605067 0.273851 0.000000 0.000000 0.000000 
2.473220 -0.029576 0.276315 0.000000 0.000000 0.000000 
2.331679 -0.016962 0.277073 0.000000 0.000000 0.000000 
1.873260 -0.202517 0.278369 0.000000 0.000000 0.000000 
1.957913 0.135378 0.276638 0.000000 0.000000 0.000000 
1.586358 -0.014362 0.276652 0.000000 0.000000 0.000000 
1.759850 0.428613 0.280260 0.000000 0.000000 0.000000 
1.508671 0.406390 0.285724 0.000000 0.000000 0.000000 
2.472154 0.370269 1.051347 0.000000 0.000000 0.000000 
1.558136 -0.859195 0.295145 0.000000 0.000000 0.000000 
2.769017 -0.154916 0.382385 0.000000 0.000000 0.000000 
2.320744 -0.368064 0.289197 0.000000 0.000000 0.000000 
1.649223 -0.405343 0.289352 0.000000 0.000000 0.000000 
2.495891 0.425297 0.653707 0.000000 0.000000 0.000000 
2.507005 0.455402 0.504211 0.000000 0.000000 0.000000 
1.373088 -0.080241 0.285598 0.000000 0.000000 0.000000 
2.806594 -0.024596 0.613331 0.000000 0.000000 0.000000 
2.748775 -0.137953 0.294772 0.000000 0.000000 0.000000 
2.545673 0.564775 0.497113 0.000000 0.000000 0.000000 
2.761142 -0.186446 0.562947 0.000000 0.000000 0.000000 
2.273618 -0.694107 0.286927 0.000000 0.000000 0.000000 
1.354612 -0.704821 0.290881 0.000000 0.000000 0.000000 
2.704244 -0.074591 0.284937 0.000000 0.000000 0.000000 
2.681171 0.060323 0.285158 0.000000 0.000000 0.000000 
2.626769 0.104513 0.284729 0.000000 0.000000 0.000000 
1.539049 -0.335381 0.287195 0.000000 0.000000 0.000000 
2.525812 0.514649 0.497002 0.000000 0.000000 0.000000 
1.699624 0.172516 0.287130 0.000000 0.000000 0.000000 
2.090018 -0.784831 0.280051 0.000000 0.000000 0.000000 
1.830988 -0.695584 0.281631 0.000000 0.000000 0.000000 
2.618196 -0.278532 0.282636 0.000000 0.000000 0.000000 
1.994129 -0.096473 0.283403 0.000000 0.000000 0.000000 
1.778504 0.232670 0.282403 0.000000 0.000000 0.000000 
1.441999 0.098355 0.282807 0.000000 0.000000 0.000000 
2.364146 0.548068 0.278413 0.000000 0.000000 0.000000 
2.477422 0.375088 1.080336 0.000000 0.000000 0.000000 
2.632084 -0.662256 0.354794 0.000000 0.000000 0.000000 
2.767759 -0.152291 0.597363 0.000000 0.000000 0.000000 
2.605921 -0.673567 0.279837 0.000000 0.000000 0.000000 
2.081691 -0.903162 0.275205 0.000000 0.000000 0.000000 
1.804787 -0.525357 0.294269 0.000000 0.000000 0.000000 
2.253142 0.002162 0.281277 0.000000 0.000000 0.000000 
2.211411 0.101339 0.280258 0.000000 0.000000 0.000000 
1.505731 0.059738 0.282442 0.000000 0.000000 0.000000 
1.499692 0.142404 0.280716 0.000000 0.000000 0.000000 
2.658514 -0.531786 0.789509 0.000000 0.000000 0.000000 
2.771064 -0.142057 0.900787 0.000000 0.000000 0.000000 
2.748147 -0.216671 0.731835 0.000000 0.000000 0.000000 
1.974294 -0.449002 0.791741 0.000000 0.000000 0.000000 
2.775233 -0.138693 0.721558 0.000000 0.000000 0.000000 
2.477639 0.388075 0.959507 0.000000 0.000000 0.000000 
1.538519 -0.746282 0.288236 0.000000 0.000000 0.000000 
2.531008 0.278700 0.282200 0.000000 0.000000 0.000000 
1.807318 -0.031636 0.282934 0.000000 0.000000 0.000000 
1.865207 0.094266 0.283631 0.000000 0.000000 0.000000 
2.358485 0.397140 0.282329 0.000000 0.000000 0.000000 
2.552408 0.602634 0.487321 0.000000 0.000000 0.000000 
1.924701 0.254927 0.284342 0.000000 0.000000 0.000000 
2.121866 -0.414476 0.979013 0.000000 0.000000 0.000000 
2.809618 -0.014963 0.982655 0.000000 0.000000 0.000000 
2.015827 -0.419710 0.838125 0.000000 0.000000 0.000000 
2.428253 -0.835947 0.360234 0.000000 0.000000 0.000000 
2.821172 0.028441 0.707038 0.000000 0.000000 0.000000 
1.736145 -0.320940 0.802729 0.000000 0.000000 0.000000 
2.476027 0.393629 0.807337 0.000000 0.000000 0.000000 
2.640115 0.219200 0.270335 0.000000 0.000000 0.000000 
2.463941 0.201849 0.276922 0.000000 0.000000 0.000000 
2.750089 -0.200127 0.978846 0.000000 0.000000 0.000000 
2.059750 -0.390171 0.999225 0.000000 0.000000 0.000000 
2.701420 -0.400897 0.408453 0.000000 0.000000 0.000000 
2.709787 -0.352733 0.371030 0.000000 0.000000 0.000000 
1.771090 -0.644330 0.413179 0.000000 0.000000 0.000000 
2.126428 -0.451771 0.291092 0.000000 0.000000 0.000000 
2.595891 -0.091771 0.285924 0.000000 0.000000 0.000000 
1.804602 -0.445888 0.290359 0.000000 0.000000 0.000000 
1.870471 -0.283441 0.285913 0.000000 0.000000 0.000000 
2.008771 -0.158376 0.285790 0.000000 0.000000 0.000000 
2.332578 0.302186 0.284403 0.000000 0.000000 0.000000 
2.651282 -0.550303 0.886391 0.000000 0.000000 0.000000 
2.766854 -0.150985 0.943949 0.000000 0.000000 0.000000 
2.225423 -0.414687 0.945208 0.000000 0.000000 0.000000 
2.804306 -0.022407 0.918456 0.000000 0.000000 0.000000 
2.773763 -0.140836 0.820075 0.000000 0.000000 0.000000 
2.485045 -0.996258 0.345516 0.000000 0.000000 0.000000 
1.850959 -1.018991 0.295205 0.000000 0.000000 0.000000 
2.807808 -0.015181 0.640612 0.000000 0.000000 0.000000 
2.473656 0.367865 0.857084 0.000000 0.000000 0.000000 
1.862398 -0.158427 0.284366 0.000000 0.000000 0.000000 
1.709507 -0.172979 0.286526 0.000000 0.000000 0.000000 
2.463269 0.227210 0.282243 0.000000 0.000000 0.000000 
1.554955 -0.094099 0.286777 0.000000 0.000000 0.000000 
2.750872 -0.203979 0.915276 0.000000 0.000000 0.000000 
2.716232 -0.340820 0.716862 0.000000 0.000000 0.000000 
2.753044 -0.208535 0.730986 0.000000 0.000000 0.000000 
2.356483 -0.972678 0.318595 0.000000 0.000000 0.000000 
1.860073 -0.422092 0.286234 0.000000 0.000000 0.000000 
1.925320 -0.197531 0.284217 0.000000 0.000000 0.000000 
2.314574 -0.445972 0.989616 0.000000 0.000000 0.000000 
2.655148 -0.543988 0.561496 0.000000 0.000000 0.000000 
1.742822 -0.332237 0.901398 0.000000 0.000000 0.000000 
1.785540 -0.781034 0.301452 0.000000 0.000000 0.000000 
2.697472 -0.171466 0.282569 0.000000 0.000000 0.000000 
2.566741 -0.024940 0.281468 0.000000 0.000000 0.000000 
1.543671 -0.292634 0.287780 0.000000 0.000000 0.000000 
1.906268 -0.062464 0.284571 0.000000 0.000000 0.000000 
2.495943 0.439253 0.522272 0.000000 0.000000 0.000000 
2.312113 0.279107 0.283167 0.000000 0.000000 0.000000 
1.705516 -0.017355 0.285834 0.000000 0.000000 0.000000 
2.697233 -0.389735 0.874394 0.000000 0.000000 0.000000 
1.811179 -1.161255 0.445739 0.000000 0.000000 0.000000 
1.777315 -0.350848 0.874524 0.000000 0.000000 0.000000 
2.424047 -0.729499 0.281435 0.000000 0.000000 0.000000 
1.748273 -0.343997 0.803924 0.000000 0.000000 0.000000 
1.705245 -0.803293 0.306501 0.000000 0.000000 0.000000 
1.616190 -0.792460 0.282265 0.000000 0.000000 0.000000 
1.689540 -0.593427 0.285143 0.000000 0.000000 0.000000 
2.211269 0.005072 0.281276 0.000000 0.000000 0.000000 
1.653359 -0.136915 0.283264 0.000000 0.000000 0.000000 
2.795743 -0.052333 1.003939 0.000000 0.000000 0.000000 
