0.234618 -1.224552 -0.699345 0.000000 0.000000 0.000000
0.563190 -1.223505 -0.517468 0.000000 0.000000 0.000000
0.746145 -1.226076 -0.392358 0.000000 0.000000 0.000000
0.951707 -1.235506 0.151215 0.000000 0.000000 0.000000
0.579207 -1.230784 0.111423 0.000000 0.000000 0.000000
0.340494 -1.228631 0.296045 0.000000 0.000000 0.000000
1.297007 -0.886198 -0.405736 0.000000 0.000000 0.000000
1.282949 -0.917111 -0.388454 0.000000 0.000000 0.000000
-0.078562 -1.155462 -0.924561 0.000000 0.000000 0.000000
0.153384 -1.229347 -0.428446 0.000000 0.000000 0.000000
0.059558 -1.227584 -0.341228 0.000000 0.000000 0.000000
0.655202 -1.234376 -0.204932 0.000000 0.000000 0.000000
0.030703 -1.227751 -0.199993 0.000000 0.000000 0.000000
0.762264 -1.232360 0.017387 0.000000 0.000000 0.000000
0.445591 -1.234356 0.112503 0.000000 0.000000 0.000000
0.896742 -1.238922 0.218543 0.000000 0.000000 0.000000
0.048211 -1.222555 -0.802836 0.000000 0.000000 0.000000
0.908973 -1.177838 -0.518348 0.000000 0.000000 0.000000
-0.107179 -1.224333 -0.502505 0.000000 0.000000 0.000000
0.402126 -1.228585 -0.275428 0.000000 0.000000 0.000000
0.547898 -1.231891 -0.207123 0.000000 0.000000 0.000000
0.518395 -1.229503 -0.159617 0.000000 0.000000 0.000000
-0.001238 -1.234255 -0.004376 0.000000 0.000000 0.000000
0.076973 -1.233118 0.086478 0.000000 0.000000 0.000000
0.453570 -1.233362 0.136432 0.000000 0.000000 0.000000
0.259855 -1.231145 0.186686 0.000000 0.000000 0.000000
-0.279646 -1.220500 -0.712052 0.000000 0.000000 0.000000
0.586659 -1.231855 -0.498638 0.000000 0.000000 0.000000
-0.007335 -1.229381 -0.456043 0.000000 0.000000 0.000000
0.624848 -1.229084 -0.213030 0.000000 0.000000 0.000000
0.040390 -1.230133 -0.185672 0.000000 0.000000 0.000000
1.093030 -1.233894 -0.051090 0.000000 0.000000 0.000000
-0.379049 -1.203298 -0.901007 0.000000 0.000000 0.000000
0.950602 -1.219974 -0.876812 0.000000 0.000000 0.000000
0.383356 -1.236737 -0.402216 0.000000 0.000000 0.000000
1.084985 -1.076789 -0.243874 0.000000 0.000000 0.000000
0.752340 -1.232317 -0.000984 0.000000 0.000000 0.000000
0.873607 -1.238154 0.119881 0.000000 0.000000 0.000000
0.782803 -1.237113 0.198198 0.000000 0.000000 0.000000
-0.048944 -1.234350 0.246413 0.000000 0.000000 0.000000
0.813705 -1.220886 -0.832713 0.000000 0.000000 0.000000
0.623593 -1.223548 -0.599291 0.000000 0.000000 0.000000
-0.369642 -1.211578 -0.241018 0.000000 0.000000 0.000000
0.353644 -1.231895 -0.220887 0.000000 0.000000 0.000000
-0.284876 -1.230068 0.082938 0.000000 0.000000 0.000000
0.994618 -1.247941 0.263461 0.000000 0.000000 0.000000
0.925237 -1.116252 -0.992400 0.000000 0.000000 0.000000
0.854078 -1.222645 -0.794067 0.000000 0.000000 0.000000
0.994590 -1.013612 -0.370331 0.000000 0.000000 0.000000
-0.014014 -1.229987 0.016972 0.000000 0.000000 0.000000
0.872434 -1.228976 -0.096468 0.000000 0.000000 0.000000
-0.170228 -1.237682 0.371555 0.000000 0.000000 0.000000
0.116313 -1.232207 0.322575 0.000000 0.000000 0.000000
0.785755 -1.235297 0.240692 0.000000 0.000000 0.000000
-0.109369 -1.231086 0.464850 0.000000 0.000000 0.000000
0.370550 -1.245086 -1.033644 0.000000 0.000000 0.000000
-0.414997 -1.206690 -0.449061 0.000000 0.000000 0.000000
0.600363 -1.224067 -0.664907 0.000000 0.000000 0.000000
0.279638 -1.228477 -0.447968 0.000000 0.000000 0.000000
0.468941 -1.221350 -0.491028 0.000000 0.000000 0.000000
-0.062988 -1.227814 -0.118762 0.000000 0.000000 0.000000
0.137400 -1.228926 -0.064227 0.000000 0.000000 0.000000
0.129873 -1.231616 -0.013481 0.000000 0.000000 0.000000
-0.351815 -1.234624 0.245931 0.000000 0.000000 0.000000
0.643877 -1.229640 0.044090 0.000000 0.000000 0.000000
0.098942 -1.230626 0.221042 0.000000 0.000000 0.000000
-0.237514 -1.235060 0.382436 0.000000 0.000000 0.000000
-0.471179 -1.224819 -0.122343 0.000000 0.000000 0.000000
-0.334536 -1.229100 -0.048985 0.000000 0.000000 0.000000
-0.322128 -1.226549 0.110359 0.000000 0.000000 0.000000
0.538331 -1.226151 0.000648 0.000000 0.000000 0.000000
0.630203 -1.229616 0.062178 0.000000 0.000000 0.000000
0.446665 -1.233251 0.238771 0.000000 0.000000 0.000000
0.774083 -1.232773 0.327544 0.000000 0.000000 0.000000
0.247565 -1.226708 -0.708942 0.000000 0.000000 0.000000
-0.283727 -1.224209 -0.364894 0.000000 0.000000 0.000000
0.858370 -1.209614 -0.756626 0.000000 0.000000 0.000000
0.971034 -1.182584 -0.567785 0.000000 0.000000 0.000000
-0.179308 -1.230011 -0.082124 0.000000 0.000000 0.000000
0.380643 -1.226137 -0.274681 0.000000 0.000000 0.000000
0.563186 -1.226932 -0.169653 0.000000 0.000000 0.000000
0.904098 -1.227789 -0.184142 0.000000 0.000000 0.000000
-0.012899 -1.230573 0.177387 0.000000 0.000000 0.000000
-0.277924 -1.233436 0.313165 0.000000 0.000000 0.000000
-0.128121 -1.234142 0.261760 0.000000 0.000000 0.000000
0.021835 -1.230651 0.301009 0.000000 0.000000 0.000000
0.962211 -1.236348 0.065399 0.000000 0.000000 0.000000
-0.087650 -1.237774 0.534628 0.000000 0.000000 0.000000
0.865210 -1.236012 0.253114 0.000000 0.000000 0.000000
0.748621 -1.234492 0.328000 0.000000 0.000000 0.000000
0.130880 -1.229348 -0.685308 0.000000 0.000000 0.000000
-0.441715 -1.124674 -0.192280 0.000000 0.000000 0.000000
-0.012065 -1.227776 -0.201053 0.000000 0.000000 0.000000
0.972784 -1.221039 -0.334929 0.000000 0.000000 0.000000
0.422593 -1.228468 -0.027043 0.000000 0.000000 0.000000
0.968770 -1.220317 -0.081611 0.000000 0.000000 0.000000
0.407856 -1.233248 0.334166 0.000000 0.000000 0.000000
-0.171085 -1.237346 0.657693 0.000000 0.000000 0.000000
0.665514 -1.210590 -0.854644 0.000000 0.000000 0.000000
0.690010 -1.218025 -0.722040 0.000000 0.000000 0.000000
0.574726 -1.231149 -0.237273 0.000000 0.000000 0.000000
0.482355 -1.231389 0.152843 0.000000 0.000000 0.000000
0.439869 -1.232973 0.213187 0.000000 0.000000 0.000000
-0.021687 -1.234987 0.556553 0.000000 0.000000 0.000000
0.786761 -1.239202 0.280193 0.000000 0.000000 0.000000
0.330697 -1.238863 0.600092 0.000000 0.000000 0.000000
0.553866 -1.235534 0.514308 0.000000 0.000000 0.000000
0.385473 -1.207965 -0.636655 0.000000 0.000000 0.000000
-0.163134 -1.233070 -0.361390 0.000000 0.000000 0.000000
-0.482724 -1.216949 -0.073733 0.000000 0.000000 0.000000
-0.161142 -1.229567 0.187236 0.000000 0.000000 0.000000
0.612431 -1.219654 -0.125216 0.000000 0.000000 0.000000
-0.045220 -1.232444 0.188954 0.000000 0.000000 0.000000
0.806040 -1.229219 -0.012211 0.000000 0.000000 0.000000
0.503362 -1.228256 0.157451 0.000000 0.000000 0.000000
0.802783 -1.234544 0.163821 0.000000 0.000000 0.000000
-0.344628 -1.207667 -0.182239 0.000000 0.000000 0.000000
0.569439 -1.208662 -0.459338 0.000000 0.000000 0.000000
0.425767 -1.225874 -0.175122 0.000000 0.000000 0.000000
0.417422 -1.221054 -0.059813 0.000000 0.000000 0.000000
0.903949 -1.219695 -0.021212 0.000000 0.000000 0.000000
0.816976 -1.236663 0.265587 0.000000 0.000000 0.000000
0.177602 -1.239912 0.643204 0.000000 0.000000 0.000000
0.526631 -1.244349 0.535149 0.000000 0.000000 0.000000
0.481629 -1.238537 0.657162 0.000000 0.000000 0.000000
0.587579 -1.226349 -0.271660 0.000000 0.000000 0.000000
-0.255003 -1.234193 0.201665 0.000000 0.000000 0.000000
0.267213 -1.229204 0.028350 0.000000 0.000000 0.000000
0.907282 -1.233811 -0.007380 0.000000 0.000000 0.000000
0.251561 -1.238783 0.522257 0.000000 0.000000 0.000000
0.644560 -1.241455 0.396684 0.000000 0.000000 0.000000
0.341101 -1.240237 0.633808 0.000000 0.000000 0.000000
0.531327 -1.241547 0.555339 0.000000 0.000000 0.000000
0.307398 -1.244791 0.682612 0.000000 0.000000 0.000000
0.718075 -1.242286 0.514120 0.000000 0.000000 0.000000
0.824472 -1.244555 0.573531 0.000000 0.000000 0.000000
0.232109 -1.233360 0.224885 0.000000 0.000000 0.000000
-0.252483 -1.252436 0.512139 0.000000 0.000000 0.000000
0.058789 -1.242375 0.469932 0.000000 0.000000 0.000000
0.191240 -1.242647 0.536191 0.000000 0.000000 0.000000
0.096026 -1.241468 0.689935 0.000000 0.000000 0.000000
0.672615 -1.241859 0.452646 0.000000 0.000000 0.000000
1.029794 -1.242083 0.343480 0.000000 0.000000 0.000000
0.930320 -1.245008 0.527395 0.000000 0.000000 0.000000
0.703868 -1.215746 -0.323032 0.000000 0.000000 0.000000
0.365115 -1.236611 0.283229 0.000000 0.000000 0.000000
0.723148 -1.240481 0.303262 0.000000 0.000000 0.000000
0.249594 -1.241468 0.609292 0.000000 0.000000 0.000000
0.586263 -1.243625 0.621268 0.000000 0.000000 0.000000
0.321852 -1.235981 0.104252 0.000000 0.000000 0.000000
0.394703 -1.235041 0.074067 0.000000 0.000000 0.000000
0.475351 -1.241973 0.349801 0.000000 0.000000 0.000000
0.749340 -1.243117 0.433743 0.000000 0.000000 0.000000
0.865426 -1.244376 0.459807 0.000000 0.000000 0.000000
0.898193 -1.245574 0.446328 0.000000 0.000000 0.000000
0.072956 -1.249968 0.853395 0.000000 0.000000 0.000000
-0.333924 -1.237862 0.156829 0.000000 0.000000 0.000000
-0.632473 -1.242114 -0.016951 0.000000 0.000000 0.000000
0.564967 -1.226684 -0.499216 0.000000 0.000000 0.000000
0.340838 -1.232183 -0.227679 0.000000 0.000000 0.000000
-0.177153 -1.238433 0.149832 0.000000 0.000000 0.000000
0.204713 -1.238994 0.288675 0.000000 0.000000 0.000000
0.903687 -1.229505 0.094258 0.000000 0.000000 0.000000
0.825685 -1.239159 0.326599 0.000000 0.000000 0.000000
0.743779 -1.239539 0.434694 0.000000 0.000000 0.000000
0.608365 -1.240610 0.525818 0.000000 0.000000 0.000000
0.449989 -1.230935 0.071012 0.000000 0.000000 0.000000
0.426398 -1.236776 0.257088 0.000000 0.000000 0.000000
-0.335238 -1.252088 0.575475 0.000000 0.000000 0.000000
0.748658 -1.239931 0.411461 0.000000 0.000000 0.000000
0.245638 -1.246188 0.737143 0.000000 0.000000 0.000000
-0.466073 -1.221369 -0.270634 0.000000 0.000000 0.000000
-0.204849 -1.252459 -0.404460 0.000000 0.000000 0.000000
0.788228 -1.223486 -0.488069 0.000000 0.000000 0.000000
0.757310 -1.228162 -0.307945 0.000000 0.000000 0.000000
0.476048 -1.230836 -0.145852 0.000000 0.000000 0.000000
-0.078539 -1.236770 0.224883 0.000000 0.000000 0.000000
0.038339 -1.236623 0.228329 0.000000 0.000000 0.000000
-0.406772 -1.245488 0.589580 0.000000 0.000000 0.000000
0.108874 -1.240293 0.469251 0.000000 0.000000 0.000000
0.283314 -1.244404 0.397368 0.000000 0.000000 0.000000
0.456752 -1.238887 0.328633 0.000000 0.000000 0.000000
0.762945 -1.237959 0.204776 0.000000 0.000000 0.000000
0.240223 -1.249930 0.534018 0.000000 0.000000 0.000000
0.561665 -1.241369 0.478351 0.000000 0.000000 0.000000
0.565094 -1.215618 -0.700181 0.000000 0.000000 0.000000
-0.294241 -1.247077 -0.318001 0.000000 0.000000 0.000000
0.257236 -1.228262 -0.520753 0.000000 0.000000 0.000000
0.248951 -1.234291 -0.262740 0.000000 0.000000 0.000000
0.735542 -1.227464 -0.235988 0.000000 0.000000 0.000000
0.163482 -1.228124 0.213752 0.000000 0.000000 0.000000
-0.179054 -1.246552 0.404043 0.000000 0.000000 0.000000
0.332540 -1.238089 0.361208 0.000000 0.000000 0.000000
0.669646 -1.238805 0.405600 0.000000 0.000000 0.000000
0.283101 -1.232623 -0.326118 0.000000 0.000000 0.000000
-0.620856 -1.240543 0.506309 0.000000 0.000000 0.000000
-0.095337 -1.235762 0.307317 0.000000 0.000000 0.000000
0.312984 -1.233813 0.109912 0.000000 0.000000 0.000000
-0.072048 -1.241422 0.578215 0.000000 0.000000 0.000000
-0.428048 -1.250087 0.799235 0.000000 0.000000 0.000000
-0.240242 -1.247132 0.747891 0.000000 0.000000 0.000000
0.076505 -1.243812 0.707419 0.000000 0.000000 0.000000
-0.519562 -1.176887 -0.190425 0.000000 0.000000 0.000000
-0.986259 -1.251112 0.093622 0.000000 0.000000 0.000000
0.411120 -1.227491 -0.409939 0.000000 0.000000 0.000000
-0.729801 -1.219408 0.462361 0.000000 0.000000 0.000000
0.329038 -1.255533 -0.095163 0.000000 0.000000 0.000000
-0.083269 -1.236031 0.181530 0.000000 0.000000 0.000000
-0.597377 -1.226394 0.611819 0.000000 0.000000 0.000000
0.593071 -1.243703 0.079772 0.000000 0.000000 0.000000
0.768643 -1.242604 0.315775 0.000000 0.000000 0.000000
0.011575 -1.243660 0.810100 0.000000 0.000000 0.000000
0.699764 -1.238739 0.426738 0.000000 0.000000 0.000000
-1.066726 -1.249581 0.121722 0.000000 0.000000 0.000000
0.027843 -1.238849 -0.200936 0.000000 0.000000 0.000000
-0.470804 -1.246657 0.112445 0.000000 0.000000 0.000000
-0.886918 -1.232104 0.405054 0.000000 0.000000 0.000000
0.267367 -1.239078 -0.200070 0.000000 0.000000 0.000000
0.089260 -1.228776 0.073119 0.000000 0.000000 0.000000
-0.672272 -1.233809 0.591662 0.000000 0.000000 0.000000
-0.412663 -1.238503 0.554510 0.000000 0.000000 0.000000
-0.393091 -1.256467 0.686989 0.000000 0.000000 0.000000
0.109226 -1.241825 0.408032 0.000000 0.000000 0.000000
0.083432 -1.234562 0.514500 0.000000 0.000000 0.000000
-0.059885 -1.240246 0.803712 0.000000 0.000000 0.000000
0.544005 -1.237368 0.447026 0.000000 0.000000 0.000000
0.686704 -1.242382 0.362226 0.000000 0.000000 0.000000
-0.342533 -1.203191 -0.357102 0.000000 0.000000 0.000000
-0.970640 -1.234308 0.001806 0.000000 0.000000 0.000000
-0.581853 -1.243974 0.019550 0.000000 0.000000 0.000000
-0.430747 -1.218077 -0.035188 0.000000 0.000000 0.000000
0.255278 -1.233985 -0.350013 0.000000 0.000000 0.000000
-0.515219 -1.236902 0.442344 0.000000 0.000000 0.000000
-0.317853 -1.238025 0.328122 0.000000 0.000000 0.000000
-0.171472 -1.242263 0.455973 0.000000 0.000000 0.000000
-0.452677 -1.238353 0.677170 0.000000 0.000000 0.000000
0.431897 -1.233128 0.236500 0.000000 0.000000 0.000000
-0.095019 -1.241342 0.691775 0.000000 0.000000 0.000000
-0.449013 -1.176737 -0.348446 0.000000 0.000000 0.000000
-0.404208 -1.199769 -0.322872 0.000000 0.000000 0.000000
-1.392491 -1.405520 0.399752 0.000000 0.000000 0.000000
-0.135589 -1.238899 0.481856 0.000000 0.000000 0.000000
-0.675111 -1.245963 0.874902 0.000000 0.000000 0.000000
-0.496298 -1.244289 0.860328 0.000000 0.000000 0.000000
-0.132352 -1.241408 0.714458 0.000000 0.000000 0.000000
0.330331 -1.241833 0.448960 0.000000 0.000000 0.000000
-0.435706 -1.241478 1.049101 0.000000 0.000000 0.000000
-0.333724 -1.169215 -0.261451 0.000000 0.000000 0.000000
-0.417210 -1.218486 -0.125847 0.000000 0.000000 0.000000
-0.333901 -1.219470 -0.173684 0.000000 0.000000 0.000000
-0.425032 -1.233085 0.264974 0.000000 0.000000 0.000000
-0.372668 -1.232003 0.294297 0.000000 0.000000 0.000000
-0.090164 -1.239825 0.282331 0.000000 0.000000 0.000000
0.275096 -1.234617 0.052069 0.000000 0.000000 0.000000
-0.393078 -1.240472 0.738259 0.000000 0.000000 0.000000
0.346262 -1.233872 0.245461 0.000000 0.000000 0.000000
0.184993 -1.239175 0.569323 0.000000 0.000000 0.000000
-0.374647 -1.168059 -0.308993 0.000000 0.000000 0.000000
-0.112188 -1.221558 -0.518228 0.000000 0.000000 0.000000
-0.281948 -1.223886 -0.208642 0.000000 0.000000 0.000000
0.059356 -1.229411 -0.095762 0.000000 0.000000 0.000000
-0.182059 -1.234167 0.337279 0.000000 0.000000 0.000000
-0.420528 -1.233043 0.548900 0.000000 0.000000 0.000000
-0.139258 -1.235310 0.361833 0.000000 0.000000 0.000000
-0.293799 -1.244586 0.898448 0.000000 0.000000 0.000000
-0.275703 -1.245978 0.971507 0.000000 0.000000 0.000000
-0.378973 -1.201523 -0.208429 0.000000 0.000000 0.000000
-0.305944 -1.233329 0.177534 0.000000 0.000000 0.000000
-0.115476 -1.231683 0.114461 0.000000 0.000000 0.000000
-0.876945 -1.274543 0.707496 0.000000 0.000000 0.000000
-0.915213 -1.292817 0.784533 0.000000 0.000000 0.000000
-0.209563 -1.236712 0.447153 0.000000 0.000000 0.000000
0.271120 -1.235134 0.167884 0.000000 0.000000 0.000000
-0.291800 -1.238572 0.604737 0.000000 0.000000 0.000000
-0.111132 -1.239161 0.574690 0.000000 0.000000 0.000000
0.167787 -1.236571 0.423063 0.000000 0.000000 0.000000
-0.386047 -1.246178 0.861875 0.000000 0.000000 0.000000
-0.267498 -1.243145 0.866931 0.000000 0.000000 0.000000
-0.758796 -1.230496 0.472376 0.000000 0.000000 0.000000
-0.813269 -1.223335 0.574928 0.000000 0.000000 0.000000
0.052904 -1.229787 -0.003426 0.000000 0.000000 0.000000
-0.901519 -1.299672 0.647689 0.000000 0.000000 0.000000
-0.305385 -1.231900 0.346347 0.000000 0.000000 0.000000
-0.458449 -1.234294 0.558508 0.000000 0.000000 0.000000
-0.588942 -1.237163 0.700701 0.000000 0.000000 0.000000
0.301697 -1.231707 0.227021 0.000000 0.000000 0.000000
-0.006087 -1.237327 0.578953 0.000000 0.000000 0.000000
0.045904 -1.234230 0.708471 0.000000 0.000000 0.000000
-0.323186 -1.229685 -0.360459 0.000000 0.000000 0.000000
0.143278 -1.222790 -0.566544 0.000000 0.000000 0.000000
0.141591 -1.229263 -0.137314 0.000000 0.000000 0.000000
0.026024 -1.232782 0.101681 0.000000 0.000000 0.000000
-0.198612 -1.235221 0.305028 0.000000 0.000000 0.000000
-0.990172 -1.195398 -0.055421 0.000000 0.000000 0.000000
-0.895212 -1.235004 0.140583 0.000000 0.000000 0.000000
-1.328720 -1.416015 0.314205 0.000000 0.000000 0.000000
-0.465797 -1.230716 0.314358 0.000000 0.000000 0.000000
-0.195267 -1.235536 0.293981 0.000000 0.000000 0.000000
-0.364925 -1.236040 0.561972 0.000000 0.000000 0.000000
0.404660 -1.225392 0.080114 0.000000 0.000000 0.000000
0.096584 -1.234950 0.424986 0.000000 0.000000 0.000000
-0.580499 -1.258682 0.943154 0.000000 0.000000 0.000000
-0.283197 -1.243344 0.903077 0.000000 0.000000 0.000000
-0.597539 -1.236036 0.096605 0.000000 0.000000 0.000000
-0.583615 -1.237756 0.149886 0.000000 0.000000 0.000000
0.200182 -1.228042 -0.359556 0.000000 0.000000 0.000000
-0.626604 -1.236066 0.302615 0.000000 0.000000 0.000000
-0.778589 -1.238783 0.519995 0.000000 0.000000 0.000000
-0.386386 -1.234032 0.258577 0.000000 0.000000 0.000000
-0.549586 -1.241542 0.822277 0.000000 0.000000 0.000000
0.121435 -1.234077 0.353893 0.000000 0.000000 0.000000
-0.461367 -1.239003 0.975273 0.000000 0.000000 0.000000
0.169560 -1.233553 0.564052 0.000000 0.000000 0.000000
-0.127633 -1.216807 -0.586800 0.000000 0.000000 0.000000
-0.090286 -1.230073 -0.287355 0.000000 0.000000 0.000000
-0.836369 -1.238705 0.326861 0.000000 0.000000 0.000000
-0.641232 -1.238296 0.376006 0.000000 0.000000 0.000000
0.333178 -1.220004 -0.217926 0.000000 0.000000 0.000000
0.246222 -1.234197 -0.063529 0.000000 0.000000 0.000000
0.149896 -1.232912 0.373543 0.000000 0.000000 0.000000
-0.341175 -1.240882 0.760617 0.000000 0.000000 0.000000
0.162554 -1.234950 0.525772 0.000000 0.000000 0.000000
-0.508814 -1.212311 -0.165624 0.000000 0.000000 0.000000
-0.883954 -1.231222 0.504720 0.000000 0.000000 0.000000
-0.674651 -1.233829 0.360756 0.000000 0.000000 0.000000
-0.127343 -1.231859 -0.009682 0.000000 0.000000 0.000000
-0.477639 -1.238181 0.492253 0.000000 0.000000 0.000000
0.393281 -1.214656 -0.005292 0.000000 0.000000 0.000000
0.103161 -1.235658 0.532127 0.000000 0.000000 0.000000
0.456260 -1.234128 0.320277 0.000000 0.000000 0.000000
0.298355 -1.237171 0.470207 0.000000 0.000000 0.000000
-0.826456 -1.237933 0.247666 0.000000 0.000000 0.000000
0.087606 -1.229026 -0.368077 0.000000 0.000000 0.000000
0.126013 -1.232355 -0.337749 0.000000 0.000000 0.000000
0.106061 -1.239821 -0.159385 0.000000 0.000000 0.000000
-0.412111 -1.237898 0.253646 0.000000 0.000000 0.000000
-0.857662 -1.290677 0.641256 0.000000 0.000000 0.000000
0.055358 -1.234812 0.037059 0.000000 0.000000 0.000000
-0.127038 -1.233714 0.214560 0.000000 0.000000 0.000000
0.183645 -1.234238 -0.001512 0.000000 0.000000 0.000000
-0.601134 -1.251175 0.586510 0.000000 0.000000 0.000000
0.064520 -1.232959 0.130865 0.000000 0.000000 0.000000
0.224660 -1.232341 0.159440 0.000000 0.000000 0.000000
-0.118299 -1.235923 0.487778 0.000000 0.000000 0.000000
0.143389 -1.232309 0.304665 0.000000 0.000000 0.000000
-0.317198 -1.238683 0.670499 0.000000 0.000000 0.000000
-0.151039 -1.239650 0.678075 0.000000 0.000000 0.000000
0.270564 -1.235005 0.457701 0.000000 0.000000 0.000000
-0.023242 -1.239027 0.704338 0.000000 0.000000 0.000000
-0.056069 -1.229712 -0.220503 0.000000 0.000000 0.000000
-0.146427 -1.233339 0.166009 0.000000 0.000000 0.000000
-0.021351 -1.233936 0.078263 0.000000 0.000000 0.000000
-0.108013 -1.236259 0.421666 0.000000 0.000000 0.000000
0.358351 -1.235496 0.179150 0.000000 0.000000 0.000000
-0.074310 -1.239519 0.646374 0.000000 0.000000 0.000000
-0.064000 -1.241134 0.715468 0.000000 0.000000 0.000000
-1.044724 -1.246377 0.133661 0.000000 0.000000 0.000000
-0.090167 -1.229857 -0.484556 0.000000 0.000000 0.000000
-0.182100 -1.238023 -0.018491 0.000000 0.000000 0.000000
0.042714 -1.234196 0.179966 0.000000 0.000000 0.000000
0.228850 -1.234849 0.228044 0.000000 0.000000 0.000000
0.201772 -1.232487 0.288497 0.000000 0.000000 0.000000
-0.479686 -1.242566 0.796061 0.000000 0.000000 0.000000
-0.157137 -1.239529 0.615194 0.000000 0.000000 0.000000
0.178426 -1.235757 0.384709 0.000000 0.000000 0.000000
-0.299790 -1.243243 0.867514 0.000000 0.000000 0.000000
-0.851940 -1.238943 -0.009408 0.000000 0.000000 0.000000
0.099845 -1.227839 -0.420471 0.000000 0.000000 0.000000
0.133100 -1.223687 -0.438000 0.000000 0.000000 0.000000
-0.597891 -1.239029 0.182740 0.000000 0.000000 0.000000
-0.901696 -1.249239 0.424518 0.000000 0.000000 0.000000
-0.304184 -1.236403 0.153746 0.000000 0.000000 0.000000
-0.110057 -1.235097 0.029713 0.000000 0.000000 0.000000
-0.580789 -1.240893 0.428823 0.000000 0.000000 0.000000
0.063109 -1.234853 0.155121 0.000000 0.000000 0.000000
-0.564977 -1.241639 0.649605 0.000000 0.000000 0.000000
-0.556799 -1.243503 0.687258 0.000000 0.000000 0.000000
-0.777965 -1.233262 -0.025123 0.000000 0.000000 0.000000
0.024312 -1.228788 -0.384016 0.000000 0.000000 0.000000
0.066757 -1.233968 -0.096863 0.000000 0.000000 0.000000
0.010292 -1.234781 0.169203 0.000000 0.000000 0.000000
-0.651753 -1.241985 0.697009 0.000000 0.000000 0.000000
0.022748 -1.239368 0.484524 0.000000 0.000000 0.000000
-0.635384 -1.246715 0.125283 0.000000 0.000000 0.000000
-0.106350 -1.234408 -0.104475 0.000000 0.000000 0.000000
-0.102789 -1.236727 0.037585 0.000000 0.000000 0.000000
-0.523941 -1.240883 0.357636 0.000000 0.000000 0.000000
-0.733879 -1.250962 0.599964 0.000000 0.000000 0.000000
-0.032738 -1.238919 0.418360 0.000000 0.000000 0.000000
0.025807 -1.237141 0.495798 0.000000 0.000000 0.000000
0.371003 -1.237095 0.306655 0.000000 0.000000 0.000000
0.453120 -1.238115 0.296642 0.000000 0.000000 0.000000
-0.581479 -1.240434 0.254533 0.000000 0.000000 0.000000
-0.463858 -1.241270 0.412119 0.000000 0.000000 0.000000
0.038264 -1.236044 0.363472 0.000000 0.000000 0.000000
0.183074 -1.236918 0.365154 0.000000 0.000000 0.000000
-0.233721 -1.240793 0.634432 0.000000 0.000000 0.000000
-0.169896 -1.227286 -0.426865 0.000000 0.000000 0.000000
-0.464238 -1.191558 -0.168100 0.000000 0.000000 0.000000
-0.927619 -1.227208 0.047470 0.000000 0.000000 0.000000
-0.218605 -1.237949 -0.202658 0.000000 0.000000 0.000000
0.364588 -1.226135 -0.386344 0.000000 0.000000 0.000000
-0.406113 -1.246926 0.154098 0.000000 0.000000 0.000000
0.221191 -1.235472 -0.100939 0.000000 0.000000 0.000000
0.415867 -1.227266 -0.135204 0.000000 0.000000 0.000000
-0.164835 -1.238383 0.143515 0.000000 0.000000 0.000000
0.293498 -1.234394 0.036372 0.000000 0.000000 0.000000
-0.626103 -1.243624 0.569371 0.000000 0.000000 0.000000
0.269351 -1.234688 0.338918 0.000000 0.000000 0.000000
0.232961 -1.235127 0.387278 0.000000 0.000000 0.000000
-0.471225 -0.981162 -0.233781 0.000000 0.000000 0.000000
-0.426090 -1.026358 -0.248043 0.000000 0.000000 0.000000
0.110843 -1.231968 -0.419751 0.000000 0.000000 0.000000
0.255567 -1.234633 -0.227817 0.000000 0.000000 0.000000
0.271903 -1.238579 0.022687 0.000000 0.000000 0.000000
0.396263 -1.236337 0.016934 0.000000 0.000000 0.000000
-0.259801 -1.251822 0.443477 0.000000 0.000000 0.000000
0.299524 -1.238626 0.305382 0.000000 0.000000 0.000000
0.422301 -1.235853 0.259780 0.000000 0.000000 0.000000
-0.844557 -0.916880 -0.120714 0.000000 0.000000 0.000000
-0.822014 -1.162551 -0.010839 0.000000 0.000000 0.000000
-0.479306 -1.239089 -0.071469 0.000000 0.000000 0.000000
-0.562964 -1.246894 0.046738 0.000000 0.000000 0.000000
-0.329761 -1.236378 -0.022613 0.000000 0.000000 0.000000
0.460674 -1.239855 -0.063258 0.000000 0.000000 0.000000
0.492861 -1.234825 -0.072125 0.000000 0.000000 0.000000
-0.434538 -1.245114 0.454708 0.000000 0.000000 0.000000
-0.215023 -1.245606 0.485451 0.000000 0.000000 0.000000
0.250901 -1.237215 0.364021 0.000000 0.000000 0.000000
0.500631 -1.225266 -0.825098 0.000000 0.000000 0.000000
-0.809118 -0.970244 -0.081271 0.000000 0.000000 0.000000
-0.749144 -0.978653 -0.104504 0.000000 0.000000 0.000000
0.452876 -1.247926 -0.390986 0.000000 0.000000 0.000000
-0.475445 -1.247910 -0.040088 0.000000 0.000000 0.000000
-0.559739 -1.244085 0.121367 0.000000 0.000000 0.000000
-0.004294 -1.241168 0.010915 0.000000 0.000000 0.000000
-0.013427 -1.240402 0.055091 0.000000 0.000000 0.000000
0.330710 -1.234458 0.000805 0.000000 0.000000 0.000000
-0.608244 -1.243960 0.414469 0.000000 0.000000 0.000000
-0.055745 -1.240804 0.258706 0.000000 0.000000 0.000000
-0.078564 -1.235992 0.369843 0.000000 0.000000 0.000000
0.166557 -1.231384 -0.605248 0.000000 0.000000 0.000000
-0.369116 -1.086054 -0.258883 0.000000 0.000000 0.000000
-0.529881 -1.098960 -0.184362 0.000000 0.000000 0.000000
-0.241767 -1.232955 -0.193163 0.000000 0.000000 0.000000
-0.339549 -1.241815 -0.079992 0.000000 0.000000 0.000000
-0.298743 -1.238180 -0.087644 0.000000 0.000000 0.000000
0.501547 -1.226856 -0.137375 0.000000 0.000000 0.000000
0.451161 -1.234345 -0.087069 0.000000 0.000000 0.000000
0.521421 -1.227132 -0.022344 0.000000 0.000000 0.000000
-0.093340 -1.238580 0.158423 0.000000 0.000000 0.000000
-0.354266 -1.248121 0.256142 0.000000 0.000000 0.000000
-0.110910 -1.232372 0.237973 0.000000 0.000000 0.000000
-0.580612 -1.242856 0.454024 0.000000 0.000000 0.000000
-0.478533 -1.244793 0.429402 0.000000 0.000000 0.000000
0.447565 -1.236360 0.240685 0.000000 0.000000 0.000000
0.531101 -1.238922 -0.918375 0.000000 0.000000 0.000000
0.629806 -1.243415 -0.940914 0.000000 0.000000 0.000000
-0.174840 -1.234178 -0.655266 0.000000 0.000000 0.000000
0.114142 -1.233907 -0.040490 0.000000 0.000000 0.000000
0.304352 -1.235102 -0.077252 0.000000 0.000000 0.000000
-0.362690 -1.241879 0.317094 0.000000 0.000000 0.000000
0.453766 -1.232231 0.258019 0.000000 0.000000 0.000000
-0.352311 -1.213951 -0.500896 0.000000 0.000000 0.000000
0.475127 -1.233079 -0.633882 0.000000 0.000000 0.000000
-0.555520 -0.955276 -0.214638 0.000000 0.000000 0.000000
0.317334 -1.238208 -0.446478 0.000000 0.000000 0.000000
-0.107126 -1.237502 -0.137014 0.000000 0.000000 0.000000
-0.054233 -1.247010 -0.059813 0.000000 0.000000 0.000000
0.584008 -1.240904 -0.029631 0.000000 0.000000 0.000000
0.483606 -1.229401 0.026620 0.000000 0.000000 0.000000
-0.154291 -1.237994 0.158202 0.000000 0.000000 0.000000
0.537356 -1.233260 0.054818 0.000000 0.000000 0.000000
0.046268 -1.233681 0.268495 0.000000 0.000000 0.000000
-0.199618 -1.214799 -0.942202 0.000000 0.000000 0.000000
-0.435920 -0.727277 -0.309481 0.000000 0.000000 0.000000
-0.457096 -0.875686 -0.243401 0.000000 0.000000 0.000000
-0.332421 -1.236842 -0.378431 0.000000 0.000000 0.000000
0.156615 -1.229275 -0.423964 0.000000 0.000000 0.000000
0.504517 -1.225137 -0.457182 0.000000 0.000000 0.000000
0.085967 -1.234569 -0.131126 0.000000 0.000000 0.000000
-0.208408 -1.238812 -0.058042 0.000000 0.000000 0.000000
0.042292 -1.231104 0.075754 0.000000 0.000000 0.000000
-0.168060 -1.235152 0.170687 0.000000 0.000000 0.000000
0.263520 -1.236172 0.122393 0.000000 0.000000 0.000000
0.584944 -1.238419 0.086179 0.000000 0.000000 0.000000
0.138877 -1.228997 0.171896 0.000000 0.000000 0.000000
-0.132672 -1.229334 0.268502 0.000000 0.000000 0.000000
-0.063988 -1.231520 0.260574 0.000000 0.000000 0.000000
0.227597 -1.229296 -0.951424 0.000000 0.000000 0.000000
0.523250 -1.227037 -0.824255 0.000000 0.000000 0.000000
0.508957 -1.237526 -0.019720 0.000000 0.000000 0.000000
0.274952 -1.238471 -1.127582 0.000000 0.000000 0.000000
-0.259016 -1.066770 -0.836547 0.000000 0.000000 0.000000
0.746548 -1.236461 -0.639128 0.000000 0.000000 0.000000
-0.187028 -1.240313 -0.391222 0.000000 0.000000 0.000000
0.476392 -1.234569 -0.261566 0.000000 0.000000 0.000000
0.577623 -1.264891 -1.326457 0.000000 0.000000 0.000000
-0.227829 -1.057938 -0.840456 0.000000 0.000000 0.000000
1.026058 -1.214627 -0.924292 0.000000 0.000000 0.000000
-0.126012 -1.239480 -0.819639 0.000000 0.000000 0.000000
-0.405001 -1.217628 -0.495114 0.000000 0.000000 0.000000
0.613234 -1.233428 -0.444131 0.000000 0.000000 0.000000
0.727875 -1.227829 -0.039302 0.000000 0.000000 0.000000
-0.586221 -1.235715 0.030470 0.000000 0.000000 0.000000
-0.568792 -1.240439 0.099427 0.000000 0.000000 0.000000
0.073271 -1.198870 -1.457318 0.000000 0.000000 0.000000
0.350500 -1.235762 -1.395723 0.000000 0.000000 0.000000
0.705665 -1.112445 -1.202915 0.000000 0.000000 0.000000
0.272759 -1.241386 -1.217249 0.000000 0.000000 0.000000
-0.398260 -0.630417 -0.358656 0.000000 0.000000 0.000000
-0.297734 -1.199987 -0.808099 0.000000 0.000000 0.000000
-0.442030 -0.779755 -0.306330 0.000000 0.000000 0.000000
-0.369901 -0.856669 -0.321081 0.000000 0.000000 0.000000
-0.370415 -0.957124 -0.306850 0.000000 0.000000 0.000000
0.812380 -1.238002 -0.430709 0.000000 0.000000 0.000000
0.066664 -1.248870 -0.415098 0.000000 0.000000 0.000000
-0.347298 -1.226878 -0.369415 0.000000 0.000000 0.000000
-0.409436 -1.173562 -0.211750 0.000000 0.000000 0.000000
0.758768 -1.236261 -0.149840 0.000000 0.000000 0.000000
-0.181824 -0.848449 -0.897362 0.000000 0.000000 0.000000
-0.169481 -0.895458 -0.891652 0.000000 0.000000 0.000000
0.945204 -1.154611 -0.900884 0.000000 0.000000 0.000000
0.546274 -1.239034 -0.798301 0.000000 0.000000 0.000000
-0.420906 -0.886344 -0.293412 0.000000 0.000000 0.000000
0.522260 -1.237292 -0.383237 0.000000 0.000000 0.000000
0.370160 -1.232217 -0.294557 0.000000 0.000000 0.000000
0.465339 -1.233052 -0.242578 0.000000 0.000000 0.000000
-0.500160 -1.074023 -0.204138 0.000000 0.000000 0.000000
-0.470372 -1.085413 -0.206547 0.000000 0.000000 0.000000
0.377538 -1.234739 -0.122809 0.000000 0.000000 0.000000
0.023203 -1.200413 -1.712963 0.000000 0.000000 0.000000
0.863377 -0.953347 -0.951764 0.000000 0.000000 0.000000
-0.272310 -0.972742 -0.816004 0.000000 0.000000 0.000000
0.359835 -1.224401 -1.019097 0.000000 0.000000 0.000000
-0.396655 -0.745664 -0.538110 0.000000 0.000000 0.000000
0.855144 -1.218299 -0.881987 0.000000 0.000000 0.000000
-0.309041 -1.106121 -0.825175 0.000000 0.000000 0.000000
0.650437 -1.222865 -0.834211 0.000000 0.000000 0.000000
0.145343 -1.226912 -0.820583 0.000000 0.000000 0.000000
0.035235 -1.227224 -0.700845 0.000000 0.000000 0.000000
0.055988 -1.227397 -0.637630 0.000000 0.000000 0.000000
0.067961 -1.230563 -0.470759 0.000000 0.000000 0.000000
0.218048 -1.230036 -0.403871 0.000000 0.000000 0.000000
-0.090687 -1.232768 -0.340748 0.000000 0.000000 0.000000
0.233621 -1.233466 -0.219325 0.000000 0.000000 0.000000
-0.031761 -1.234022 -0.204695 0.000000 0.000000 0.000000
-0.188766 -1.236380 -0.142244 0.000000 0.000000 0.000000
-0.073143 -1.236218 -0.130530 0.000000 0.000000 0.000000
0.080709 -1.234340 -0.114468 0.000000 0.000000 0.000000
-0.289595 -0.596317 -0.880452 0.000000 0.000000 0.000000
-0.230102 -0.617440 -0.908772 0.000000 0.000000 0.000000
0.349273 -1.234550 -1.330913 0.000000 0.000000 0.000000
0.923278 -1.197045 -0.854302 0.000000 0.000000 0.000000
0.216131 -1.234077 -0.651448 0.000000 0.000000 0.000000
-0.432249 -0.967195 -0.506747 0.000000 0.000000 0.000000
0.921525 -1.218647 -0.424142 0.000000 0.000000 0.000000
0.629990 -1.228835 -0.272275 0.000000 0.000000 0.000000
0.796584 -1.228946 -0.248583 0.000000 0.000000 0.000000
-0.209046 -1.232083 -0.304451 0.000000 0.000000 0.000000
0.570040 -1.230275 -0.112163 0.000000 0.000000 0.000000
0.222769 -1.221865 -1.789250 0.000000 0.000000 0.000000
-0.350333 -0.856887 -0.529934 0.000000 0.000000 0.000000
0.101748 -1.228079 -0.731728 0.000000 0.000000 0.000000
-0.421490 -0.903112 -0.531761 0.000000 0.000000 0.000000
0.311340 -1.232484 -0.636711 0.000000 0.000000 0.000000
-0.003642 -1.234653 -0.376909 0.000000 0.000000 0.000000
0.927109 -1.208086 -0.820692 0.000000 0.000000 0.000000
0.819892 -1.222244 -0.522178 0.000000 0.000000 0.000000
0.942937 -1.091690 -0.357115 0.000000 0.000000 0.000000
0.007472 -1.227758 -0.334838 0.000000 0.000000 0.000000
0.075090 -1.217993 -1.555364 0.000000 0.000000 0.000000
1.067392 -1.057103 -0.757918 0.000000 0.000000 0.000000
0.821364 -1.215553 -0.903136 0.000000 0.000000 0.000000
-0.378494 -0.938963 -0.847377 0.000000 0.000000 0.000000
0.947690 -0.929097 -0.420491 0.000000 0.000000 0.000000
0.077960 -1.221101 -0.793635 0.000000 0.000000 0.000000
-0.365631 -1.208401 -0.504241 0.000000 0.000000 0.000000
0.051254 -1.227263 -0.420090 0.000000 0.000000 0.000000
0.478657 -1.225831 -0.236504 0.000000 0.000000 0.000000
0.521726 -1.224482 -0.185386 0.000000 0.000000 0.000000
0.964271 -0.498884 -0.688948 0.000000 0.000000 0.000000
0.971262 -0.959997 -0.888518 0.000000 0.000000 0.000000
0.365723 -1.230394 -1.202238 0.000000 0.000000 0.000000
0.051084 -1.227226 -1.108606 0.000000 0.000000 0.000000
0.963873 -1.016193 -0.424711 0.000000 0.000000 0.000000
0.894573 -1.231152 -0.542025 0.000000 0.000000 0.000000
0.616582 -1.228564 -0.390607 0.000000 0.000000 0.000000
0.164439 -1.213447 -2.014766 0.000000 0.000000 0.000000
1.116866 -0.808435 -1.004411 0.000000 0.000000 0.000000
0.826513 -0.485153 -0.549554 0.000000 0.000000 0.000000
0.877649 -1.089076 -1.021396 0.000000 0.000000 0.000000
0.492711 -1.222763 -1.207063 0.000000 0.000000 0.000000
0.955129 -0.881402 -0.436473 0.000000 0.000000 0.000000
-0.263338 -1.229033 -0.776630 0.000000 0.000000 0.000000
0.444727 -1.227948 -0.414992 0.000000 0.000000 0.000000
0.283816 -1.227197 -0.413209 0.000000 0.000000 0.000000
0.019415 -1.231508 -0.400914 0.000000 0.000000 0.000000
0.763917 -0.453455 -0.967991 0.000000 0.000000 0.000000
0.938711 -1.046342 -1.843894 0.000000 0.000000 0.000000
0.881210 -0.492122 -0.588991 0.000000 0.000000 0.000000
0.699593 -1.076646 -1.317689 0.000000 0.000000 0.000000
0.444626 -1.213721 -1.489124 0.000000 0.000000 0.000000
0.463923 -1.219403 -1.006971 0.000000 0.000000 0.000000
-0.387510 -0.969239 -0.824227 0.000000 0.000000 0.000000
-0.308011 -0.869406 -0.592268 0.000000 0.000000 0.000000
-0.111435 -1.227899 -0.634461 0.000000 0.000000 0.000000
0.843479 -1.227836 -0.231991 0.000000 0.000000 0.000000
0.017316 -0.969342 -2.388873 0.000000 0.000000 0.000000
0.885786 -0.934250 -1.577373 0.000000 0.000000 0.000000
0.536177 -1.209988 -1.931925 0.000000 0.000000 0.000000
0.846460 -0.938245 -1.020651 0.000000 0.000000 0.000000
1.090348 -0.908980 -0.574571 0.000000 0.000000 0.000000
0.636302 -1.242190 -0.784342 0.000000 0.000000 0.000000
0.005599 -0.611603 -2.383391 0.000000 0.000000 0.000000
0.807215 -0.380326 -1.148720 0.000000 0.000000 0.000000
1.233253 -0.429347 -1.064294 0.000000 0.000000 0.000000
1.299217 -0.499069 -0.834888 0.000000 0.000000 0.000000
0.958934 -0.848772 -0.954021 0.000000 0.000000 0.000000
-0.104422 -1.206151 -1.843552 0.000000 0.000000 0.000000
1.148594 -1.017225 -0.912801 0.000000 0.000000 0.000000
-0.120421 -1.201945 -1.611984 0.000000 0.000000 0.000000
0.199868 -1.218015 -1.385132 0.000000 0.000000 0.000000
-0.063411 -1.242853 -1.338460 0.000000 0.000000 0.000000
1.035271 -1.109855 -0.732355 0.000000 0.000000 0.000000
0.442532 -1.224898 -0.869476 0.000000 0.000000 0.000000
1.130875 -0.397550 -1.202284 0.000000 0.000000 0.000000
0.220239 -0.735697 -2.483609 0.000000 0.000000 0.000000
0.932743 -0.476084 -0.778009 0.000000 0.000000 0.000000
0.591446 -1.105198 -2.120007 0.000000 0.000000 0.000000
0.233947 -1.196229 -2.306056 0.000000 0.000000 0.000000
0.983105 -0.495265 -0.545205 0.000000 0.000000 0.000000
0.400239 -1.215352 -1.526864 0.000000 0.000000 0.000000
1.204520 -0.906579 -0.645661 0.000000 0.000000 0.000000
-0.148886 -1.032486 -0.891639 0.000000 0.000000 0.000000
0.454863 -1.216462 -0.740404 0.000000 0.000000 0.000000
0.410507 -1.216725 -0.700952 0.000000 0.000000 0.000000
-0.253066 -1.144972 -0.851956 0.000000 0.000000 0.000000
0.345273 -0.642876 -2.552629 0.000000 0.000000 0.000000
1.349901 -0.358956 -0.856304 0.000000 0.000000 0.000000
0.372927 -1.213544 -2.401602 0.000000 0.000000 0.000000
0.148858 -1.183816 -2.295682 0.000000 0.000000 0.000000
-0.013965 -1.206996 -1.508779 0.000000 0.000000 0.000000
0.626152 -1.218270 -0.913866 0.000000 0.000000 0.000000
0.985650 -0.900931 -0.438567 0.000000 0.000000 0.000000
0.808511 -1.210743 -0.539339 0.000000 0.000000 0.000000
-0.025655 -1.104404 -2.363481 0.000000 0.000000 0.000000
0.275983 -1.208134 -1.753538 0.000000 0.000000 0.000000
-0.139601 -1.187496 -1.538906 0.000000 0.000000 0.000000
1.187606 -0.899042 -0.458218 0.000000 0.000000 0.000000
0.961833 -0.905552 -0.467193 0.000000 0.000000 0.000000
0.343945 -1.220668 -0.827244 0.000000 0.000000 0.000000
0.468666 -1.223690 -0.639011 0.000000 0.000000 0.000000
1.280892 -0.473282 -0.908111 0.000000 0.000000 0.000000
0.429895 -1.014958 -2.555065 0.000000 0.000000 0.000000
0.301570 -1.179318 -2.381896 0.000000 0.000000 0.000000
0.893417 -0.481201 -0.579123 0.000000 0.000000 0.000000
1.013602 -0.997238 -0.840239 0.000000 0.000000 0.000000
0.033290 -1.208161 -1.626981 0.000000 0.000000 0.000000
1.070298 -0.888059 -0.515913 0.000000 0.000000 0.000000
0.704457 -1.217404 -1.015643 0.000000 0.000000 0.000000
1.133898 -0.901849 -0.357313 0.000000 0.000000 0.000000
0.922743 -1.223712 -0.443396 0.000000 0.000000 0.000000
0.549225 -1.220038 -0.611991 0.000000 0.000000 0.000000
0.610858 -0.396254 -1.533112 0.000000 0.000000 0.000000
1.209890 -0.410518 -1.076186 0.000000 0.000000 0.000000
1.369078 -0.371194 -0.801328 0.000000 0.000000 0.000000
1.425583 -0.402269 -0.706732 0.000000 0.000000 0.000000
1.481616 -0.386544 -0.609391 0.000000 0.000000 0.000000
0.584879 -0.471128 -1.313061 0.000000 0.000000 0.000000
-0.013647 -1.207514 -1.542220 0.000000 0.000000 0.000000
0.042524 -1.209042 -1.412475 0.000000 0.000000 0.000000
1.167400 -1.244416 -0.212922 0.000000 0.000000 0.000000
0.629342 -0.392428 -2.521578 0.000000 0.000000 0.000000
1.078863 -0.413104 -0.972000 0.000000 0.000000 0.000000
1.191353 -0.485771 -0.565103 0.000000 0.000000 0.000000
0.848058 -0.478909 -0.746192 0.000000 0.000000 0.000000
0.784312 -0.504714 -0.674176 0.000000 0.000000 0.000000
0.510951 -1.209394 -1.725932 0.000000 0.000000 0.000000
1.025998 -0.927435 -0.884974 0.000000 0.000000 0.000000
0.998773 -0.487438 -0.256851 0.000000 0.000000 0.000000
0.606160 -1.218868 -1.195157 0.000000 0.000000 0.000000
0.261672 -1.222059 -1.120829 0.000000 0.000000 0.000000
1.045219 -1.014027 -0.258704 0.000000 0.000000 0.000000
0.255872 -1.214826 -0.973710 0.000000 0.000000 0.000000
1.463382 -0.274211 -0.665822 0.000000 0.000000 0.000000
1.120393 -0.464273 -0.877100 0.000000 0.000000 0.000000
1.414393 -0.469996 -0.609196 0.000000 0.000000 0.000000
1.281375 -0.487037 -0.420230 0.000000 0.000000 0.000000
1.216576 -0.465370 -0.337775 0.000000 0.000000 0.000000
1.176813 -1.027716 -0.846043 0.000000 0.000000 0.000000
1.257464 -1.070829 -0.837501 0.000000 0.000000 0.000000
0.914693 -1.210598 -0.894767 0.000000 0.000000 0.000000
0.957748 -1.210677 -0.857273 0.000000 0.000000 0.000000
1.457225 -0.154078 -0.484458 0.000000 0.000000 0.000000
0.865736 -0.340159 -2.028477 0.000000 0.000000 0.000000
0.950893 -0.424649 -2.042786 0.000000 0.000000 0.000000
1.354056 -0.434776 -0.435979 0.000000 0.000000 0.000000
0.663053 -0.470853 -0.997782 0.000000 0.000000 0.000000
1.003830 -0.521314 -0.247245 0.000000 0.000000 0.000000
1.141388 -1.110154 -0.778528 0.000000 0.000000 0.000000
1.068565 -0.931107 -0.293810 0.000000 0.000000 0.000000
0.274523 -1.214614 -1.164993 0.000000 0.000000 0.000000
1.475064 -0.166306 -0.603797 0.000000 0.000000 0.000000
1.313644 -0.225986 -0.920330 0.000000 0.000000 0.000000
1.332907 -0.223035 -0.878118 0.000000 0.000000 0.000000
0.828096 -0.359038 -1.448365 0.000000 0.000000 0.000000
1.284050 -0.488734 -0.818011 0.000000 0.000000 0.000000
1.338710 -0.484041 -0.741561 0.000000 0.000000 0.000000
0.765084 -0.482777 -1.083088 0.000000 0.000000 0.000000
0.898531 -0.482402 -0.810410 0.000000 0.000000 0.000000
0.856037 -0.508309 -0.521267 0.000000 0.000000 0.000000
1.000051 -0.862487 -0.889473 0.000000 0.000000 0.000000
1.278990 -0.920014 -0.473311 0.000000 0.000000 0.000000
0.861842 -1.153098 -1.133326 0.000000 0.000000 0.000000
0.698871 -1.219722 -1.277419 0.000000 0.000000 0.000000
0.218619 -1.217581 -1.661356 0.000000 0.000000 0.000000
0.574972 -1.214768 -1.188629 0.000000 0.000000 0.000000
0.673541 -1.216917 -0.995285 0.000000 0.000000 0.000000
1.495158 -1.237357 -0.088614 0.000000 0.000000 0.000000
0.968189 -1.079020 -0.393832 0.000000 0.000000 0.000000
0.984723 -1.057488 -0.356611 0.000000 0.000000 0.000000
1.504128 -0.047692 -0.616910 0.000000 0.000000 0.000000
1.384004 -0.112614 -0.384058 0.000000 0.000000 0.000000
1.048965 -0.492825 -0.274792 0.000000 0.000000 0.000000
0.394398 -1.212942 -1.242466 0.000000 0.000000 0.000000
0.965076 -1.028217 -0.414478 0.000000 0.000000 0.000000
1.281443 -0.273382 -0.983644 0.000000 0.000000 0.000000
0.784649 -0.412434 -1.186849 0.000000 0.000000 0.000000
1.424098 -0.477616 -0.580352 0.000000 0.000000 0.000000
0.962426 -0.488213 -0.533645 0.000000 0.000000 0.000000
0.863186 -0.579812 -0.645631 0.000000 0.000000 0.000000
1.233501 -0.935200 -0.613973 0.000000 0.000000 0.000000
1.030664 -1.032510 -0.784318 0.000000 0.000000 0.000000
1.239478 -0.877922 -0.310952 0.000000 0.000000 0.000000
0.776770 -1.218500 -0.921539 0.000000 0.000000 0.000000
1.471486 -0.114809 -0.286217 0.000000 0.000000 0.000000
0.703150 -0.384802 -1.625131 0.000000 0.000000 0.000000
1.316725 -0.511747 -0.826014 0.000000 0.000000 0.000000
0.672372 -1.225176 -1.679985 0.000000 0.000000 0.000000
1.429289 -0.882730 -0.054854 0.000000 0.000000 0.000000
0.725101 -1.175998 -1.168884 0.000000 0.000000 0.000000
1.224792 -0.092965 -0.321919 0.000000 0.000000 0.000000
0.969307 -0.250411 -1.458899 0.000000 0.000000 0.000000
1.358524 -0.413291 -0.836704 0.000000 0.000000 0.000000
1.347884 -0.487344 -0.529817 0.000000 0.000000 0.000000
0.635161 -0.475679 -1.398116 0.000000 0.000000 0.000000
1.160299 -0.490251 -0.658843 0.000000 0.000000 0.000000
1.203671 -0.425730 -0.276386 0.000000 0.000000 0.000000
1.158262 -0.495346 -0.288093 0.000000 0.000000 0.000000
1.593332 -1.215619 -0.312340 0.000000 0.000000 0.000000
1.527487 -0.983551 -0.038832 0.000000 0.000000 0.000000
1.208805 0.070840 -1.615746 0.000000 0.000000 0.000000
1.687527 -0.042319 -0.521652 0.000000 0.000000 0.000000
1.242440 -0.146482 -1.551004 0.000000 0.000000 0.000000
1.297156 -0.251615 -0.992572 0.000000 0.000000 0.000000
1.169349 -0.178275 -0.331538 0.000000 0.000000 0.000000
0.928344 -0.485053 -0.893185 0.000000 0.000000 0.000000
1.157121 -0.488524 -0.533809 0.000000 0.000000 0.000000
0.887105 -0.897021 -1.365385 0.000000 0.000000 0.000000
1.561630 0.138974 -1.014125 0.000000 0.000000 0.000000
1.313087 -0.010076 -0.915540 0.000000 0.000000 0.000000
1.298714 -0.104353 -0.969477 0.000000 0.000000 0.000000
1.439175 -0.112207 -0.724160 0.000000 0.000000 0.000000
1.386125 -0.280652 -1.336493 0.000000 0.000000 0.000000
1.004077 -0.277794 -1.382613 0.000000 0.000000 0.000000
1.280908 -0.295662 -0.098405 0.000000 0.000000 0.000000
1.233995 -0.486101 -0.694264 0.000000 0.000000 0.000000
1.299616 -0.431716 -0.090563 0.000000 0.000000 0.000000
0.661414 -0.509600 -0.927474 0.000000 0.000000 0.000000
0.974252 -0.808871 -0.913131 0.000000 0.000000 0.000000
1.898707 0.175547 -0.232273 0.000000 0.000000 0.000000
1.874737 0.133814 -0.286870 0.000000 0.000000 0.000000
1.532660 0.111619 -1.064416 0.000000 0.000000 0.000000
1.558186 0.113175 -0.792187 0.000000 0.000000 0.000000
1.294780 -0.082417 -0.217237 0.000000 0.000000 0.000000
1.386128 -0.237697 -0.816576 0.000000 0.000000 0.000000
1.200174 -0.313989 -1.360375 0.000000 0.000000 0.000000
0.754080 -0.434053 -1.347365 0.000000 0.000000 0.000000
0.983683 -0.466642 -0.839566 0.000000 0.000000 0.000000
0.794614 -0.475250 -0.810419 0.000000 0.000000 0.000000
0.651006 -0.488961 -0.998760 0.000000 0.000000 0.000000
0.924268 -0.934875 -1.078051 0.000000 0.000000 0.000000
1.833944 0.189077 -0.332393 0.000000 0.000000 0.000000
1.760854 0.190229 -0.162172 0.000000 0.000000 0.000000
1.502673 0.170555 -1.104451 0.000000 0.000000 0.000000
1.540813 0.167652 -1.010903 0.000000 0.000000 0.000000
1.283724 0.142463 -1.329619 0.000000 0.000000 0.000000
1.196523 0.051435 -1.616793 0.000000 0.000000 0.000000
1.762222 0.013690 -0.437617 0.000000 0.000000 0.000000
1.232907 -0.067634 -1.107367 0.000000 0.000000 0.000000
1.315907 -0.081695 -0.208277 0.000000 0.000000 0.000000
1.284950 -0.130585 -0.102293 0.000000 0.000000 0.000000
1.181516 -0.165184 -0.327296 0.000000 0.000000 0.000000
1.310487 -0.433506 -0.946335 0.000000 0.000000 0.000000
1.250349 -0.328982 -0.182770 0.000000 0.000000 0.000000
1.071726 -0.454125 -0.867393 0.000000 0.000000 0.000000
0.904161 -0.466315 -0.769071 0.000000 0.000000 0.000000
0.689148 -0.485645 -0.891244 0.000000 0.000000 0.000000
0.958749 -0.503672 -0.276214 0.000000 0.000000 0.000000
1.565914 0.108324 -1.034690 0.000000 0.000000 0.000000
1.271011 0.092394 -1.380595 0.000000 0.000000 0.000000
1.760967 0.055386 -0.060331 0.000000 0.000000 0.000000
1.769977 -0.048044 -0.392457 0.000000 0.000000 0.000000
1.305970 -0.044071 -1.165987 0.000000 0.000000 0.000000
1.297623 -0.180718 -0.069189 0.000000 0.000000 0.000000
1.307634 -0.261357 -0.055831 0.000000 0.000000 0.000000
1.470858 -0.479278 -0.488818 0.000000 0.000000 0.000000
1.186104 -0.289013 -0.294641 0.000000 0.000000 0.000000
1.176695 -0.479871 -0.965416 0.000000 0.000000 0.000000
1.281129 -0.502475 -0.806931 0.000000 0.000000 0.000000
0.912877 -0.480128 -0.419795 0.000000 0.000000 0.000000
1.716146 0.174489 -0.495344 0.000000 0.000000 0.000000
1.780355 0.124976 -0.389912 0.000000 0.000000 0.000000
1.457058 0.069388 -1.199763 0.000000 0.000000 0.000000
1.722389 -0.005017 -0.489889 0.000000 0.000000 0.000000
1.269847 -0.098128 -1.459148 0.000000 0.000000 0.000000
1.233025 -0.065171 -1.101216 0.000000 0.000000 0.000000
1.354865 -0.222852 -1.383507 0.000000 0.000000 0.000000
1.373093 -0.279512 -0.852759 0.000000 0.000000 0.000000
1.233844 -0.495089 -0.936343 0.000000 0.000000 0.000000
1.635345 -0.514690 0.116543 0.000000 0.000000 0.000000
0.967703 -0.482119 -0.300352 0.000000 0.000000 0.000000
1.130263 -0.503835 0.066065 0.000000 0.000000 0.000000
1.595397 -1.101479 0.177772 0.000000 0.000000 0.000000
1.610408 -0.118140 -0.040562 0.000000 0.000000 0.000000
1.194695 -0.189783 -0.276335 0.000000 0.000000 0.000000
1.140559 -0.430486 -1.206055 0.000000 0.000000 0.000000
1.242932 -0.493613 0.056664 0.000000 0.000000 0.000000
0.854095 -0.474792 -0.752903 0.000000 0.000000 0.000000
0.733928 -0.474152 -0.969713 0.000000 0.000000 0.000000
1.412754 -0.897177 -0.039596 0.000000 0.000000 0.000000
1.525396 -0.907280 0.273256 0.000000 0.000000 0.000000
0.969590 -0.869440 -0.927546 0.000000 0.000000 0.000000
1.821026 0.035812 -0.296480 0.000000 0.000000 0.000000
1.706051 -0.079583 -0.299860 0.000000 0.000000 0.000000
1.796819 -0.093972 0.047519 0.000000 0.000000 0.000000
1.480353 -0.473422 -0.615343 0.000000 0.000000 0.000000
1.382462 -0.338959 0.033711 0.000000 0.000000 0.000000
0.923839 -0.481123 -0.602656 0.000000 0.000000 0.000000
1.006485 -0.483298 -0.308497 0.000000 0.000000 0.000000
0.968817 -0.485098 -0.283677 0.000000 0.000000 0.000000
0.761413 -0.476170 -0.840208 0.000000 0.000000 0.000000
1.424315 -0.910066 0.036362 0.000000 0.000000 0.000000
1.898691 0.049339 0.234019 0.000000 0.000000 0.000000
1.577927 0.074805 -0.957727 0.000000 0.000000 0.000000
1.378592 -0.084083 -0.342671 0.000000 0.000000 0.000000
1.337268 -0.174532 -0.893088 0.000000 0.000000 0.000000
1.849980 -0.406584 0.318140 0.000000 0.000000 0.000000
1.339311 -0.323586 -0.416436 0.000000 0.000000 0.000000
1.584516 -0.487190 0.240228 0.000000 0.000000 0.000000
0.923217 -0.472535 -0.649696 0.000000 0.000000 0.000000
0.898983 -0.483782 -0.428569 0.000000 0.000000 0.000000
1.169595 -0.964297 -0.664657 0.000000 0.000000 0.000000
1.762972 0.106597 -0.406077 0.000000 0.000000 0.000000
1.861780 0.037664 0.131931 0.000000 0.000000 0.000000
1.417089 0.090304 -1.200842 0.000000 0.000000 0.000000
1.231440 -0.145454 -0.189320 0.000000 0.000000 0.000000
