1.429116 1.256303 2.369784 0.000000 0.000000 0.000000
1.948308 1.058252 2.422284 0.000000 0.000000 0.000000
1.951578 1.170705 2.390544 0.000000 0.000000 0.000000
1.948017 0.975717 2.422284 0.000000 0.000000 0.000000
1.948531 0.953187 2.444785 0.000000 0.000000 0.000000
1.949310 1.035707 2.362284 0.000000 0.000000 0.000000
1.951206 1.148205 2.347154 0.000000 0.000000 0.000000
1.948448 0.945686 2.414784 0.000000 0.000000 0.000000
1.948723 1.200816 2.317285 0.000000 0.000000 0.000000
1.950110 1.163249 2.302284 0.000000 0.000000 0.000000
1.948288 1.067597 2.309784 0.000000 0.000000 0.000000
1.949121 1.043217 2.249784 0.000000 0.000000 0.000000
1.949904 0.870597 2.294785 0.000000 0.000000 0.000000
1.952706 0.267409 1.724784 0.000000 0.000000 0.000000
1.868715 0.250898 1.732284 0.000000 0.000000 0.000000
1.831154 0.249674 1.702285 0.000000 0.000000 0.000000
1.876226 0.251117 1.762285 0.000000 0.000000 0.000000
1.823664 0.250106 1.739784 0.000000 0.000000 0.000000
1.688667 0.252426 1.769784 0.000000 0.000000 0.000000
1.673670 0.252747 1.799785 0.000000 0.000000 0.000000
1.576215 0.255720 1.919785 0.000000 0.000000 0.000000
1.463835 0.261216 2.039784 0.000000 0.000000 0.000000
1.456350 0.261794 2.017285 0.000000 0.000000 0.000000
1.433857 0.262370 2.099784 0.000000 0.000000 0.000000
0.391044 0.824455 0.772285 0.000000 0.000000 0.000000
0.379076 0.817345 0.763512 0.000000 0.000000 0.000000
0.416980 0.793583 0.794785 0.000000 0.000000 0.000000
0.389338 0.726958 0.758878 0.000000 0.000000 0.000000
0.390292 0.681902 0.771768 0.000000 0.000000 0.000000
0.362188 0.691586 0.742285 0.000000 0.000000 0.000000
0.927191 1.282040 1.004785 0.000000 0.000000 0.000000
0.949748 1.283381 0.982285 0.000000 0.000000 0.000000
0.934110 1.264293 1.051991 0.000000 0.000000 0.000000
0.949584 1.278422 1.026088 0.000000 0.000000 0.000000
0.888640 1.250785 1.064703 0.000000 0.000000 0.000000
0.979688 1.281068 1.012285 0.000000 0.000000 0.000000
0.941310 1.255069 1.063014 0.000000 0.000000 0.000000
0.873061 1.233477 1.083863 0.000000 0.000000 0.000000
0.865565 1.233724 1.082832 0.000000 0.000000 0.000000
0.872659 1.221296 1.098771 0.000000 0.000000 0.000000
0.879512 1.221070 1.100528 0.000000 0.000000 0.000000
0.842521 1.217591 1.096784 0.000000 0.000000 0.000000
0.798195 1.238760 1.071712 0.000000 0.000000 0.000000
0.970331 1.224886 1.109784 0.000000 0.000000 0.000000
0.917226 1.207419 1.147285 0.000000 0.000000 0.000000
0.738712 1.255424 1.056985 0.000000 0.000000 0.000000
0.714789 1.212651 1.104846 0.000000 0.000000 0.000000
0.985980 1.217558 1.184785 0.000000 0.000000 0.000000
0.707096 1.206917 1.192285 0.000000 0.000000 0.000000
1.032248 1.233316 1.259785 0.000000 0.000000 0.000000
0.692399 1.216374 1.252285 0.000000 0.000000 0.000000
0.673182 1.212866 1.233209 0.000000 0.000000 0.000000
0.617259 1.213362 1.259785 0.000000 0.000000 0.000000
0.662564 1.221856 1.319785 0.000000 0.000000 0.000000
0.690136 1.227604 1.342284 0.000000 0.000000 0.000000
0.539342 1.202272 1.357285 0.000000 0.000000 0.000000
0.511903 1.204294 1.432285 0.000000 0.000000 0.000000
0.482997 1.219266 1.567284 0.000000 0.000000 0.000000
0.438014 1.239213 1.619784 0.000000 0.000000 0.000000
0.361922 1.253147 1.582285 0.000000 0.000000 0.000000
0.318697 1.261910 1.567284 0.000000 0.000000 0.000000
0.453663 1.235739 1.664784 0.000000 0.000000 0.000000
0.258721 1.263606 1.552284 0.000000 0.000000 0.000000
0.266233 1.263861 1.544785 0.000000 0.000000 0.000000
0.273755 1.264392 1.559784 0.000000 0.000000 0.000000
0.467829 1.233106 1.724784 0.000000 0.000000 0.000000
0.363319 1.249686 1.724784 0.000000 0.000000 0.000000
0.460474 1.237638 1.769784 0.000000 0.000000 0.000000
0.474264 1.235271 1.777285 0.000000 0.000000 0.000000
0.337488 1.254783 1.724784 0.000000 0.000000 0.000000
0.337485 1.254688 1.732284 0.000000 0.000000 0.000000
0.213564 1.259610 1.649785 0.000000 0.000000 0.000000
0.153444 1.256972 1.619784 0.000000 0.000000 0.000000
0.190979 1.257392 1.694785 0.000000 0.000000 0.000000
0.168427 1.256188 1.687285 0.000000 0.000000 0.000000
0.160921 1.256139 1.679785 0.000000 0.000000 0.000000
0.138386 1.255440 1.664784 0.000000 0.000000 0.000000
0.130864 1.254915 1.657285 0.000000 0.000000 0.000000
0.168409 1.255639 1.724784 0.000000 0.000000 0.000000
0.203613 1.257691 1.777285 0.000000 0.000000 0.000000
0.108301 1.253349 1.687285 0.000000 0.000000 0.000000
0.145853 1.254318 1.882284 0.000000 0.000000 0.000000
0.145865 1.254683 1.897285 0.000000 0.000000 0.000000
-0.004691 -0.768367 1.439785 0.000000 0.000000 0.000000
-0.005093 -0.768354 1.409785 0.000000 0.000000 0.000000
-0.007329 -0.828312 1.552284 0.000000 0.000000 0.000000
-0.006894 -0.820823 1.402285 0.000000 0.000000 0.000000
-0.007123 -0.835823 1.424785 0.000000 0.000000 0.000000
-0.005990 -0.760820 1.627284 0.000000 0.000000 0.000000
-0.006364 -0.798328 1.334785 0.000000 0.000000 0.000000
-0.008537 -0.865793 1.597285 0.000000 0.000000 0.000000
-0.009145 -0.858269 1.372284 0.000000 0.000000 0.000000
-0.008533 -0.873297 1.597285 0.000000 0.000000 0.000000
-0.010131 -0.873245 1.379784 0.000000 0.000000 0.000000
-0.009004 -0.925810 1.477285 0.000000 0.000000 0.000000
-0.006202 -0.790829 1.679785 0.000000 0.000000 0.000000
-0.008738 -0.918315 1.582285 0.000000 0.000000 0.000000
-0.008647 -0.937309 1.424785 0.000000 0.000000 0.000000
-0.008394 -0.914121 1.619784 0.000000 0.000000 0.000000
-0.005326 -0.775850 1.222285 0.000000 0.000000 0.000000
-0.010220 -0.843225 1.282284 0.000000 0.000000 0.000000
-0.005693 -0.790846 1.207284 0.000000 0.000000 0.000000
-0.007438 -0.993398 1.634785 0.000000 0.000000 0.000000
-0.007648 -1.015904 1.619784 0.000000 0.000000 0.000000
-0.007475 -1.015909 1.664784 0.000000 0.000000 0.000000
-0.015547 -0.888074 1.207284 0.000000 0.000000 0.000000
-0.007937 -0.813284 1.124785 0.000000 0.000000 0.000000
-0.012291 -0.850661 1.124785 0.000000 0.000000 0.000000
-0.000309 0.597231 2.422284 0.000000 0.000000 0.000000
-0.000222 0.529691 2.444785 0.000000 0.000000 0.000000
-0.000113 0.574712 2.377285 0.000000 0.000000 0.000000
0.000709 0.454620 2.444785 0.000000 0.000000 0.000000
0.001453 0.552148 2.332285 0.000000 0.000000 0.000000
0.000709 0.432108 2.407284 0.000000 0.000000 0.000000
0.001763 0.372040 2.362284 0.000000 0.000000 0.000000
0.002120 0.334508 2.354784 0.000000 0.000000 0.000000
0.002113 0.327004 2.362284 0.000000 0.000000 0.000000
0.001568 0.297900 2.414784 0.000000 0.000000 0.000000
0.000948 0.402083 2.287285 0.000000 0.000000 0.000000
0.000424 0.297044 2.467284 0.000000 0.000000 0.000000
0.002153 0.309649 2.354784 0.000000 0.000000 0.000000
0.000898 0.274516 2.422284 0.000000 0.000000 0.000000
0.001891 0.274483 2.392285 0.000000 0.000000 0.000000
0.001447 0.304514 2.287285 0.000000 0.000000 0.000000
0.003965 0.154349 2.452285 0.000000 0.000000 0.000000
0.001929 0.154417 2.369784 0.000000 0.000000 0.000000
0.001647 0.124410 2.369784 0.000000 0.000000 0.000000
0.003730 0.109333 2.429785 0.000000 0.000000 0.000000
0.002155 0.094376 2.392285 0.000000 0.000000 0.000000
0.003435 0.131855 2.272284 0.000000 0.000000 0.000000
0.002794 0.064339 2.279784 0.000000 0.000000 0.000000
0.003950 -0.003236 2.392285 0.000000 0.000000 0.000000
0.002623 0.049337 2.272284 0.000000 0.000000 0.000000
0.004095 -0.010745 2.407284 0.000000 0.000000 0.000000
0.004122 -0.025754 2.399785 0.000000 0.000000 0.000000
0.002776 -0.003197 2.294785 0.000000 0.000000 0.000000
0.002869 -0.033216 2.332285 0.000000 0.000000 0.000000
0.003005 -0.033221 2.317285 0.000000 0.000000 0.000000
0.003828 -0.070768 2.452285 0.000000 0.000000 0.000000
0.003053 -0.025718 2.279784 0.000000 0.000000 0.000000
0.003197 -0.033227 2.287285 0.000000 0.000000 0.000000
0.002631 -0.003192 2.234785 0.000000 0.000000 0.000000
0.003660 -0.100779 2.377285 0.000000 0.000000 0.000000
0.003465 -0.111235 2.369784 0.000000 0.000000 0.000000
0.003352 -0.078257 2.294785 0.000000 0.000000 0.000000
0.002374 -0.138257 2.472140 0.000000 0.000000 0.000000
0.003881 -0.130803 2.399785 0.000000 0.000000 0.000000
0.002900 -0.168291 2.422284 0.000000 0.000000 0.000000
0.003477 -0.175814 2.399785 0.000000 0.000000 0.000000
0.003787 -0.198336 2.287285 0.000000 0.000000 0.000000
0.004036 -0.183337 2.242285 0.000000 0.000000 0.000000
0.003016 -0.280856 2.392285 0.000000 0.000000 0.000000
0.004593 -0.258396 2.302284 0.000000 0.000000 0.000000
0.004059 -0.303402 2.362284 0.000000 0.000000 0.000000
0.003223 -0.325887 2.407284 0.000000 0.000000 0.000000
0.005221 -0.295937 2.302284 0.000000 0.000000 0.000000
0.004989 -0.325945 2.332285 0.000000 0.000000 0.000000
0.004197 -0.370944 2.392285 0.000000 0.000000 0.000000
0.003170 -0.400926 2.444785 0.000000 0.000000 0.000000
0.006217 -0.348498 2.287285 0.000000 0.000000 0.000000
0.007094 -0.437655 2.302284 0.000000 0.000000 0.000000
0.007836 -0.420387 2.227285 0.000000 0.000000 0.000000
0.007239 -0.491110 2.369784 0.000000 0.000000 0.000000
0.003299 -0.520996 2.444785 0.000000 0.000000 0.000000
0.007584 -0.408576 2.182285 0.000000 0.000000 0.000000
0.007822 -0.506137 2.339785 0.000000 0.000000 0.000000
0.008878 -0.513676 2.257284 0.000000 0.000000 0.000000
0.005131 -0.588593 2.369784 0.000000 0.000000 0.000000
0.009017 -0.566209 2.294785 0.000000 0.000000 0.000000
0.009301 -0.528698 2.212285 0.000000 0.000000 0.000000
0.006631 -0.648675 2.339785 0.000000 0.000000 0.000000
0.008651 -0.633733 2.287285 0.000000 0.000000 0.000000
1.222330 -0.688768 0.127285 0.000000 0.000000 0.000000
1.222047 -0.711271 0.209785 0.000000 0.000000 0.000000
1.223383 -0.763844 0.149785 0.000000 0.000000 0.000000
1.222980 -0.756326 0.179785 0.000000 0.000000 0.000000
1.223197 -0.763837 0.172285 0.000000 0.000000 0.000000
1.223665 -0.786365 0.202285 0.000000 0.000000 0.000000
1.226397 -0.861496 0.164785 0.000000 0.000000 0.000000
1.224708 -0.846042 0.233607 0.000000 0.000000 0.000000
1.222308 -0.808833 0.292285 0.000000 0.000000 0.000000
1.222251 -0.816335 0.299785 0.000000 0.000000 0.000000
1.178978 -0.867436 0.008232 0.000000 0.000000 0.000000
1.227499 -0.891548 0.187284 0.000000 0.000000 0.000000
1.149242 -0.858952 0.009778 0.000000 0.000000 0.000000
1.223688 -0.861407 0.307285 0.000000 0.000000 0.000000
1.225776 -0.883988 0.232285 0.000000 0.000000 0.000000
1.221926 -0.921381 0.039110 0.000000 0.000000 0.000000
1.170493 -0.897173 0.010013 0.000000 0.000000 0.000000
1.177989 -0.897420 0.008536 0.000000 0.000000 0.000000
1.221709 -0.936650 0.037285 0.000000 0.000000 0.000000
1.221976 -0.928887 0.039177 0.000000 0.000000 0.000000
1.120741 -0.812987 0.003913 0.000000 0.000000 0.000000
1.224950 -0.898969 0.284785 0.000000 0.000000 0.000000
1.215686 -0.966200 0.014785 0.000000 0.000000 0.000000
1.221969 -0.906375 0.314785 0.000000 0.000000 0.000000
1.221293 -0.913856 0.337285 0.000000 0.000000 0.000000
1.089768 -0.841982 0.000979 0.000000 0.000000 0.000000
1.204759 -0.995856 -0.000425 0.000000 0.000000 0.000000
1.228436 -0.981628 0.089785 0.000000 0.000000 0.000000
1.229076 -0.974146 0.202285 0.000000 0.000000 0.000000
1.227486 -0.974093 0.254785 0.000000 0.000000 0.000000
1.225049 -0.989021 0.284785 0.000000 0.000000 0.000000
1.221063 -0.936361 0.389785 0.000000 0.000000 0.000000
1.143803 -1.023862 0.003954 0.000000 0.000000 0.000000
1.227142 -1.071635 0.052284 0.000000 0.000000 0.000000
1.229249 -1.086712 0.119785 0.000000 0.000000 0.000000
1.163819 -1.099563 0.003354 0.000000 0.000000 0.000000
1.229391 -1.101725 0.082284 0.000000 0.000000 0.000000
1.088859 -1.097090 -0.003230 0.000000 0.000000 0.000000
1.229362 -1.116732 0.157284 0.000000 0.000000 0.000000
1.139848 -1.143797 0.000031 0.000000 0.000000 0.000000
1.154592 -1.151787 0.001206 0.000000 0.000000 0.000000
1.231658 -1.139320 0.097285 0.000000 0.000000 0.000000
1.225333 -1.161624 0.277285 0.000000 0.000000 0.000000
1.225865 -1.161641 0.254785 0.000000 0.000000 0.000000
1.220695 -1.206495 0.007285 0.000000 0.000000 0.000000
1.225186 -1.184131 0.277285 0.000000 0.000000 0.000000
1.225596 -1.169137 0.337285 0.000000 0.000000 0.000000
1.085151 -1.209529 -0.004508 0.000000 0.000000 0.000000
1.152367 -1.219250 -0.003679 0.000000 0.000000 0.000000
1.232190 -1.199371 0.127285 0.000000 0.000000 0.000000
1.230019 -1.191795 0.209785 0.000000 0.000000 0.000000
1.225111 -1.214145 0.322284 0.000000 0.000000 0.000000
1.231044 -1.229349 0.052284 0.000000 0.000000 0.000000
1.224426 -1.229131 0.314785 0.000000 0.000000 0.000000
1.135398 -1.278723 0.004924 0.000000 0.000000 0.000000
1.166218 -1.279740 0.007179 0.000000 0.000000 0.000000
1.224970 -1.244157 0.352284 0.000000 0.000000 0.000000
1.222367 -1.289096 0.247285 0.000000 0.000000 0.000000
1.221493 -1.289067 0.269785 0.000000 0.000000 0.000000
1.219806 -1.296515 0.187284 0.000000 0.000000 0.000000
1.218519 -1.288969 0.374785 0.000000 0.000000 0.000000
1.220267 -1.266514 0.419785 0.000000 0.000000 0.000000
1.202001 -1.310936 0.299785 0.000000 0.000000 0.000000
1.206133 -1.308251 0.389785 0.000000 0.000000 0.000000
1.186600 -1.318928 0.262285 0.000000 0.000000 0.000000
1.186634 -1.317899 0.352284 0.000000 0.000000 0.000000
1.178993 -1.322069 0.224784 0.000000 0.000000 0.000000
1.179035 -1.320779 0.382285 0.000000 0.000000 0.000000
1.168946 -1.324854 0.269785 0.000000 0.000000 0.000000
1.156508 -1.321241 0.427284 0.000000 0.000000 0.000000
1.081433 -1.322273 0.442285 0.000000 0.000000 0.000000
1.173625 0.134119 1.822285 0.000000 0.000000 0.000000
1.155140 0.168913 1.852285 0.000000 0.000000 0.000000
1.155095 0.161410 1.867285 0.000000 0.000000 0.000000
1.164427 0.141944 1.919785 0.000000 0.000000 0.000000
1.156680 0.161358 1.927284 0.000000 0.000000 0.000000
1.161432 0.146193 1.942284 0.000000 0.000000 0.000000
1.164156 0.143523 1.462284 0.000000 0.000000 0.000000
1.161211 0.146200 1.439785 0.000000 0.000000 0.000000
1.165338 0.144711 1.372284 0.000000 0.000000 0.000000
1.264396 0.129831 2.032284 0.000000 0.000000 0.000000
1.180023 0.129478 2.054785 0.000000 0.000000 0.000000
1.208651 0.129627 2.062285 0.000000 0.000000 0.000000
1.174712 0.140884 1.342284 0.000000 0.000000 0.000000
1.177498 0.130655 2.069785 0.000000 0.000000 0.000000
1.196997 0.134017 1.319785 0.000000 0.000000 0.000000
1.219550 0.135246 1.304785 0.000000 0.000000 0.000000
1.309613 0.135677 1.364784 0.000000 0.000000 0.000000
1.264590 0.135707 1.252285 0.000000 0.000000 0.000000
1.294629 0.136386 1.252285 0.000000 0.000000 0.000000
0.529345 1.278085 0.599784 0.000000 0.000000 0.000000
0.522809 1.277858 0.637285 0.000000 0.000000 0.000000
0.544356 1.278181 0.689785 0.000000 0.000000 0.000000
0.499327 1.278050 0.712285 0.000000 0.000000 0.000000
0.386546 1.271367 0.614785 0.000000 0.000000 0.000000
0.341535 1.271777 0.509213 0.000000 0.000000 0.000000
0.334200 1.276925 0.419785 0.000000 0.000000 0.000000
0.349255 1.278330 0.412285 0.000000 0.000000 0.000000
0.371784 1.278848 0.397285 0.000000 0.000000 0.000000
0.303985 1.270867 0.449538 0.000000 0.000000 0.000000
0.307365 1.267774 0.479785 0.000000 0.000000 0.000000
0.296621 1.275134 0.367285 0.000000 0.000000 0.000000
0.281363 1.267548 0.442285 0.000000 0.000000 0.000000
0.386809 1.279360 0.359784 0.000000 0.000000 0.000000
0.334184 1.276426 0.337285 0.000000 0.000000 0.000000
0.379301 1.279220 0.337285 0.000000 0.000000 0.000000
0.254174 1.271709 0.367285 0.000000 0.000000 0.000000
0.251538 1.273355 0.299785 0.000000 0.000000 0.000000
0.349200 1.276656 0.299785 0.000000 0.000000 0.000000
0.386769 1.278126 0.292285 0.000000 0.000000 0.000000
0.230399 1.272357 0.292285 0.000000 0.000000 0.000000
0.234712 1.272351 0.284785 0.000000 0.000000 0.000000
0.394261 1.277768 0.277285 0.000000 0.000000 0.000000
0.228983 1.272068 0.284785 0.000000 0.000000 0.000000
0.176219 1.264921 0.329785 0.000000 0.000000 0.000000
0.334050 1.272374 0.254785 0.000000 0.000000 0.000000
0.424064 1.271291 0.217284 0.000000 0.000000 0.000000
0.153528 1.259521 0.374785 0.000000 0.000000 0.000000
0.363795 1.264131 0.209785 0.000000 0.000000 0.000000
1.749188 1.177380 0.034740 0.000000 0.000000 0.000000
1.846141 1.159174 0.033283 0.000000 0.000000 0.000000
1.708495 1.081169 0.033675 0.000000 0.000000 0.000000
1.813191 1.070212 0.032011 0.000000 0.000000 0.000000
1.901983 1.134820 0.040756 0.000000 0.000000 0.000000
1.714260 1.028450 0.034108 0.000000 0.000000 0.000000
1.859402 1.106208 0.031339 0.000000 0.000000 0.000000
1.818956 1.017493 0.032986 0.000000 0.000000 0.000000
1.818462 1.002501 0.033399 0.000000 0.000000 0.000000
1.600833 1.002175 0.035136 0.000000 0.000000 0.000000
1.697785 0.983969 0.034088 0.000000 0.000000 0.000000
1.856683 1.023753 0.031358 0.000000 0.000000 0.000000
1.908863 1.089569 0.045395 0.000000 0.000000 0.000000
1.705034 0.976226 0.033808 0.000000 0.000000 0.000000
1.637323 0.970955 0.033747 0.000000 0.000000 0.000000
1.563106 0.995915 0.034727 0.000000 0.000000 0.000000
1.689054 0.946737 0.032944 0.000000 0.000000 0.000000
1.547372 0.973921 0.033494 0.000000 0.000000 0.000000
1.927650 1.058933 0.082284 0.000000 0.000000 0.000000
1.854953 0.971282 0.032118 0.000000 0.000000 0.000000
1.918764 1.014202 0.052284 0.000000 0.000000 0.000000
1.761788 0.876801 0.030240 0.000000 0.000000 0.000000
1.902725 0.962202 0.037285 0.000000 0.000000 0.000000
1.932567 1.028755 0.110720 0.000000 0.000000 0.000000
1.670849 0.849831 0.052284 0.000000 0.000000 0.000000
1.595888 0.852256 0.055211 0.000000 0.000000 0.000000
1.670600 0.842288 0.056228 0.000000 0.000000 0.000000
1.804538 0.807855 0.035548 0.000000 0.000000 0.000000
1.528120 0.845234 0.078935 0.000000 0.000000 0.000000
1.833780 0.784378 0.035782 0.000000 0.000000 0.000000
1.928307 0.916334 0.113230 0.000000 0.000000 0.000000
1.811045 0.777624 0.045706 0.000000 0.000000 0.000000
1.728837 0.787839 0.061520 0.000000 0.000000 0.000000
1.926878 0.876832 0.147364 0.000000 0.000000 0.000000
1.929252 0.803742 0.067285 0.000000 0.000000 0.000000
1.924340 0.863936 0.187284 0.000000 0.000000 0.000000
1.939832 0.811512 0.112285 0.000000 0.000000 0.000000
1.938402 0.795936 0.102398 0.000000 0.000000 0.000000
1.943094 0.788277 0.157284 0.000000 0.000000 0.000000
1.943033 0.780775 0.149785 0.000000 0.000000 0.000000
1.949117 0.795582 0.217284 0.000000 0.000000 0.000000
1.944085 0.825765 0.232285 0.000000 0.000000 0.000000
1.513848 1.095093 0.030587 0.000000 0.000000 0.000000
1.573815 1.093115 0.033257 0.000000 0.000000 0.000000
1.511870 1.035125 0.030917 0.000000 0.000000 0.000000
1.496631 1.028124 0.030570 0.000000 0.000000 0.000000
1.412446 0.978371 0.030963 0.000000 0.000000 0.000000
1.346465 1.025572 0.030560 0.000000 0.000000 0.000000
1.336003 0.935868 0.029476 0.000000 0.000000 0.000000
1.313268 0.929114 0.027525 0.000000 0.000000 0.000000
1.439128 0.877292 0.052284 0.000000 0.000000 0.000000
1.325046 0.831172 0.036348 0.000000 0.000000 0.000000
1.416184 0.864191 0.097285 0.000000 0.000000 0.000000
1.390109 0.857017 0.082284 0.000000 0.000000 0.000000
1.368461 0.844748 0.089785 0.000000 0.000000 0.000000
1.360882 0.838963 0.089785 0.000000 0.000000 0.000000
1.335488 0.808316 0.069151 0.000000 0.000000 0.000000
1.340410 0.815657 0.076651 0.000000 0.000000 0.000000
1.415822 0.853225 0.149785 0.000000 0.000000 0.000000
1.408159 0.848411 0.157284 0.000000 0.000000 0.000000
1.461079 0.860280 0.179785 0.000000 0.000000 0.000000
1.445201 0.857226 0.180710 0.000000 0.000000 0.000000
1.347094 0.807933 0.172285 0.000000 0.000000 0.000000
1.427088 0.859407 0.217284 0.000000 0.000000 0.000000
0.431791 1.278053 0.952285 0.000000 0.000000 0.000000
0.364230 1.277308 0.847285 0.000000 0.000000 0.000000
0.304054 1.272981 0.854784 0.000000 0.000000 0.000000
0.288945 1.269921 0.952285 0.000000 0.000000 0.000000
0.296441 1.269671 0.964674 0.000000 0.000000 0.000000
0.281441 1.269923 0.944785 0.000000 0.000000 0.000000
0.251386 1.268751 0.854784 0.000000 0.000000 0.000000
0.258869 1.268106 0.974784 0.000000 0.000000 0.000000
0.236409 1.269709 0.869784 0.000000 0.000000 0.000000
0.236396 1.269302 0.907285 0.000000 0.000000 0.000000
0.251352 1.267707 0.974784 0.000000 0.000000 0.000000
0.288780 1.264924 1.042284 0.000000 0.000000 0.000000
0.243785 1.265829 1.019785 0.000000 0.000000 0.000000
0.251229 1.263994 1.064785 0.000000 0.000000 0.000000
0.258681 1.262393 1.222285 0.000000 0.000000 0.000000
0.288702 1.262568 1.244784 0.000000 0.000000 0.000000
0.251144 1.261411 1.297285 0.000000 0.000000 0.000000
0.318780 1.264422 1.312285 0.000000 0.000000 0.000000
0.251141 1.261320 1.304785 0.000000 0.000000 0.000000
0.228578 1.259799 1.402285 0.000000 0.000000 0.000000
0.311285 1.264684 1.409785 0.000000 0.000000 0.000000
0.236081 1.259757 1.417285 0.000000 0.000000 0.000000
0.266139 1.261004 1.424785 0.000000 0.000000 0.000000
0.288789 1.265186 1.462284 0.000000 0.000000 0.000000
0.311259 1.263900 1.492285 0.000000 0.000000 0.000000
0.198448 1.256317 1.492285 0.000000 0.000000 0.000000
0.288766 1.264487 1.514785 0.000000 0.000000 0.000000
0.168431 1.256325 1.559784 0.000000 0.000000 0.000000
0.063270 1.253157 1.604784 0.000000 0.000000 0.000000
0.040723 1.252100 1.612285 0.000000 0.000000 0.000000
1.930550 0.075803 1.986193 0.000000 0.000000 0.000000
1.931853 0.045744 1.919785 0.000000 0.000000 0.000000
1.931991 0.045740 2.017285 0.000000 0.000000 0.000000
1.931847 0.053248 1.837284 0.000000 0.000000 0.000000
1.930914 0.066577 1.807285 0.000000 0.000000 0.000000
1.931938 0.038237 2.047285 0.000000 0.000000 0.000000
1.935246 -0.036913 1.964785 0.000000 0.000000 0.000000
1.933105 0.038199 1.769784 0.000000 0.000000 0.000000
1.932808 -0.044336 1.927284 0.000000 0.000000 0.000000
1.935449 -0.051928 2.024785 0.000000 0.000000 0.000000
1.933007 0.015690 2.092284 0.000000 0.000000 0.000000
1.931829 0.038241 2.129785 0.000000 0.000000 0.000000
1.938624 -0.074544 1.784785 0.000000 0.000000 0.000000
1.934353 -0.036883 2.107284 0.000000 0.000000 0.000000
1.931507 0.068268 2.137285 0.000000 0.000000 0.000000
1.937541 -0.074509 2.107284 0.000000 0.000000 0.000000
1.940480 -0.104622 1.844784 0.000000 0.000000 0.000000
1.930840 0.060786 2.159785 0.000000 0.000000 0.000000
1.938702 -0.129867 1.987284 0.000000 0.000000 0.000000
1.938658 -0.104562 2.099784 0.000000 0.000000 0.000000
1.938486 -0.134572 2.011976 0.000000 0.000000 0.000000
1.938394 -0.104553 2.114784 0.000000 0.000000 0.000000
1.939642 -0.149619 1.874784 0.000000 0.000000 0.000000
1.938908 -0.149595 1.942284 0.000000 0.000000 0.000000
1.940424 -0.149645 1.799785 0.000000 0.000000 0.000000
1.938782 -0.157095 1.972285 0.000000 0.000000 0.000000
1.937890 -0.119545 2.129785 0.000000 0.000000 0.000000
1.941658 -0.172198 1.739784 0.000000 0.000000 0.000000
1.941997 -0.202225 1.739784 0.000000 0.000000 0.000000
1.934836 -0.021891 2.249784 0.000000 0.000000 0.000000
1.933369 0.030686 2.287285 0.000000 0.000000 0.000000
1.938455 -0.232124 1.942284 0.000000 0.000000 0.000000
1.929242 0.060838 2.287285 0.000000 0.000000 0.000000
1.927677 0.068394 2.309784 0.000000 0.000000 0.000000
1.941012 -0.254721 1.702285 0.000000 0.000000 0.000000
1.928902 0.053781 2.302284 0.000000 0.000000 0.000000
1.933809 0.008159 2.309784 0.000000 0.000000 0.000000
1.939207 -0.284678 1.792285 0.000000 0.000000 0.000000
1.939891 -0.284701 1.754785 0.000000 0.000000 0.000000
1.939391 -0.284684 1.784785 0.000000 0.000000 0.000000
1.933436 0.000668 2.339785 0.000000 0.000000 0.000000
1.934366 -0.029380 2.339785 0.000000 0.000000 0.000000
1.938449 -0.329677 1.829784 0.000000 0.000000 0.000000
1.933804 -0.044369 2.369784 0.000000 0.000000 0.000000
1.938459 -0.097051 2.369784 0.000000 0.000000 0.000000
1.938365 -0.374699 1.822285 0.000000 0.000000 0.000000
1.938478 -0.194605 2.287285 0.000000 0.000000 0.000000
1.938566 -0.179600 2.302284 0.000000 0.000000 0.000000
1.938170 -0.217107 2.272284 0.000000 0.000000 0.000000
1.937977 -0.134556 2.437285 0.000000 0.000000 0.000000
1.936908 -0.239578 2.279784 0.000000 0.000000 0.000000
1.936533 -0.247069 2.279784 0.000000 0.000000 0.000000
1.937042 -0.239582 2.302284 0.000000 0.000000 0.000000
1.936061 -0.262062 2.272284 0.000000 0.000000 0.000000
1.935414 -0.314569 2.257284 0.000000 0.000000 0.000000
1.936154 -0.202032 2.451900 0.000000 0.000000 0.000000
1.934813 -0.337061 2.219785 0.000000 0.000000 0.000000
1.935477 -0.224522 2.435321 0.000000 0.000000 0.000000
1.935044 -0.239516 2.403705 0.000000 0.000000 0.000000
1.935026 -0.262028 2.392285 0.000000 0.000000 0.000000
1.933876 -0.254486 2.437285 0.000000 0.000000 0.000000
1.932797 -0.246946 2.452285 0.000000 0.000000 0.000000
1.933987 -0.261993 2.434738 0.000000 0.000000 0.000000
1.934569 -0.292029 2.414784 0.000000 0.000000 0.000000
1.933582 -0.389549 2.294785 0.000000 0.000000 0.000000
1.934293 -0.307028 2.407284 0.000000 0.000000 0.000000
1.933565 -0.352029 2.392285 0.000000 0.000000 0.000000
1.929094 -0.314361 2.467284 0.000000 0.000000 0.000000
1.932750 -0.321985 2.441122 0.000000 0.000000 0.000000
1.932325 -0.457045 2.227285 0.000000 0.000000 0.000000
1.933026 -0.434555 2.332285 0.000000 0.000000 0.000000
1.932103 -0.381996 2.422284 0.000000 0.000000 0.000000
-0.006902 -0.843335 1.717284 0.000000 0.000000 0.000000
-0.007570 -0.888337 1.724784 0.000000 0.000000 0.000000
-0.007627 -0.918351 1.822285 0.000000 0.000000 0.000000
-0.007412 -0.948375 1.822285 0.000000 0.000000 0.000000
-0.007331 -0.888345 1.814785 0.000000 0.000000 0.000000
-0.007046 -0.880850 1.837284 0.000000 0.000000 0.000000
-0.007665 -0.948367 1.844784 0.000000 0.000000 0.000000
-0.007912 -0.918342 1.859785 0.000000 0.000000 0.000000
-0.006341 -0.858361 1.863929 0.000000 0.000000 0.000000
-0.006958 -0.880853 1.889785 0.000000 0.000000 0.000000
-0.014438 -1.038192 1.994784 0.000000 0.000000 0.000000
-0.012752 -1.075768 2.054785 0.000000 0.000000 0.000000
-0.009918 -1.105878 2.092284 0.000000 0.000000 0.000000
-0.010501 -1.090851 2.129785 0.000000 0.000000 0.000000
-0.003487 -1.226389 2.167285 0.000000 0.000000 0.000000
-0.011876 -1.135830 1.889785 0.000000 0.000000 0.000000
-0.008891 -1.158440 1.949785 0.000000 0.000000 0.000000
1.938147 0.540806 0.104785 0.000000 0.000000 0.000000
1.928449 0.548630 0.041815 0.000000 0.000000 0.000000
1.928772 0.541115 0.041815 0.000000 0.000000 0.000000
1.947753 0.517977 0.217284 0.000000 0.000000 0.000000
1.922697 0.451266 0.037285 0.000000 0.000000 0.000000
1.950907 0.495360 0.239785 0.000000 0.000000 0.000000
1.950972 0.540383 0.314785 0.000000 0.000000 0.000000
1.950257 0.472870 0.217284 0.000000 0.000000 0.000000
1.952445 0.555342 0.329785 0.000000 0.000000 0.000000
1.859394 0.423338 0.023304 0.000000 0.000000 0.000000
1.913974 0.384017 0.034099 0.000000 0.000000 0.000000
1.917749 0.383893 0.037285 0.000000 0.000000 0.000000
1.937488 0.383242 0.112285 0.000000 0.000000 0.000000
1.946556 0.412959 0.194785 0.000000 0.000000 0.000000
1.926736 0.366416 0.059785 0.000000 0.000000 0.000000
1.952495 0.450283 0.262285 0.000000 0.000000 0.000000
1.857169 0.355874 0.025472 0.000000 0.000000 0.000000
1.943565 0.390545 0.179785 0.000000 0.000000 0.000000
1.794650 0.508018 0.023082 0.000000 0.000000 0.000000
1.716477 0.413043 0.025869 0.000000 0.000000 0.000000
1.953269 0.405234 0.329785 0.000000 0.000000 0.000000
1.687729 0.451511 0.024626 0.000000 0.000000 0.000000
1.664252 0.422269 0.025417 0.000000 0.000000 0.000000
1.648766 0.407772 0.025662 0.000000 0.000000 0.000000
1.631549 0.340803 0.025589 0.000000 0.000000 0.000000
1.631302 0.333307 0.025638 0.000000 0.000000 0.000000
1.602554 0.371776 0.025717 0.000000 0.000000 0.000000
1.575043 0.447724 0.024337 0.000000 0.000000 0.000000
1.573807 0.410244 0.025210 0.000000 0.000000 0.000000
1.932359 1.270564 1.364784 0.000000 0.000000 0.000000
1.887509 1.275855 1.282284 0.000000 0.000000 0.000000
1.924955 1.273592 1.282284 0.000000 0.000000 0.000000
1.937626 1.261214 1.274785 0.000000 0.000000 0.000000
1.943212 1.246022 1.402285 0.000000 0.000000 0.000000
1.941661 1.238569 1.394785 0.000000 0.000000 0.000000
1.910172 1.280422 1.454785 0.000000 0.000000 0.000000
1.939746 1.216120 1.387285 0.000000 0.000000 0.000000
1.850087 1.278839 1.454785 0.000000 0.000000 0.000000
1.941726 1.231063 1.417285 0.000000 0.000000 0.000000
1.944726 1.260980 1.462284 0.000000 0.000000 0.000000
1.940075 1.201101 1.394785 0.000000 0.000000 0.000000
1.945564 1.260952 1.499784 0.000000 0.000000 0.000000
1.941539 1.186045 1.417285 0.000000 0.000000 0.000000
1.880118 1.279278 1.522285 0.000000 0.000000 0.000000
1.946033 1.253433 1.514785 0.000000 0.000000 0.000000
1.941893 1.208545 1.454785 0.000000 0.000000 0.000000
1.942729 1.193509 1.514785 0.000000 0.000000 0.000000
1.942848 1.208513 1.544785 0.000000 0.000000 0.000000
1.946848 1.140845 1.477285 0.000000 0.000000 0.000000
1.948524 1.078112 1.393360 0.000000 0.000000 0.000000
1.948159 1.118289 1.462284 0.000000 0.000000 0.000000
1.895944 1.277768 1.619784 0.000000 0.000000 0.000000
1.931672 1.276419 1.634785 0.000000 0.000000 0.000000
1.943051 1.266505 1.642285 0.000000 0.000000 0.000000
1.886349 1.277914 1.643972 0.000000 0.000000 0.000000
1.662326 1.273989 1.477285 0.000000 0.000000 0.000000
1.692393 1.275535 1.544785 0.000000 0.000000 0.000000
1.949232 1.110750 1.514785 0.000000 0.000000 0.000000
1.943706 1.200981 1.627284 0.000000 0.000000 0.000000
1.669811 1.273423 1.529785 0.000000 0.000000 0.000000
1.950597 1.095697 1.552284 0.000000 0.000000 0.000000
1.944565 1.185945 1.649785 0.000000 0.000000 0.000000
1.948241 1.140799 1.649785 0.000000 0.000000 0.000000
1.594632 1.269225 1.484785 0.000000 0.000000 0.000000
1.602152 1.269706 1.514785 0.000000 0.000000 0.000000
1.579682 1.270998 1.402285 0.000000 0.000000 0.000000
1.952162 1.065629 1.559784 0.000000 0.000000 0.000000
1.952904 1.043092 1.537285 0.000000 0.000000 0.000000
1.549672 1.271187 1.387285 0.000000 0.000000 0.000000
1.952310 1.028104 1.589785 0.000000 0.000000 0.000000
1.949953 1.121431 1.694785 0.000000 0.000000 0.000000
1.504475 1.265946 1.507284 0.000000 0.000000 0.000000
1.951127 1.095679 1.702285 0.000000 0.000000 0.000000
1.496949 1.265293 1.537285 0.000000 0.000000 0.000000
1.459495 1.267313 1.469785 0.000000 0.000000 0.000000
1.444682 1.273227 1.514785 0.000000 0.000000 0.000000
1.436635 1.277737 1.349784 0.000000 0.000000 0.000000
1.439140 1.277654 1.484785 0.000000 0.000000 0.000000
1.422459 1.281992 1.439785 0.000000 0.000000 0.000000
1.422428 1.281050 1.499784 0.000000 0.000000 0.000000
1.362436 1.282300 1.334785 0.000000 0.000000 0.000000
1.369838 1.279201 1.462284 0.000000 0.000000 0.000000
1.332336 1.279736 1.379784 0.000000 0.000000 0.000000
1.324669 1.274807 1.477285 0.000000 0.000000 0.000000
1.287253 1.277986 1.439785 0.000000 0.000000 0.000000
1.272216 1.277098 1.454785 0.000000 0.000000 0.000000
0.018373 1.257043 0.877285 0.000000 0.000000 0.000000
-0.011215 1.250445 0.907285 0.000000 0.000000 0.000000
0.063504 1.260273 0.989785 0.000000 0.000000 0.000000
0.078522 1.260567 1.019785 0.000000 0.000000 0.000000
-0.008321 1.249115 1.019785 0.000000 0.000000 0.000000
-0.013942 1.122966 0.929785 0.000000 0.000000 0.000000
-0.015321 1.145524 0.988832 0.000000 0.000000 0.000000
-0.008735 1.077770 0.914785 0.000000 0.000000 0.000000
0.003185 1.251576 1.064785 0.000000 0.000000 0.000000
-0.015350 1.168037 1.034785 0.000000 0.000000 0.000000
0.018236 1.252870 1.094784 0.000000 0.000000 0.000000
-0.004047 1.055103 0.905623 0.000000 0.000000 0.000000
0.002451 1.054888 0.892285 0.000000 0.000000 0.000000
-0.003790 1.040086 0.912565 0.000000 0.000000 0.000000
-0.014933 1.017941 1.057285 0.000000 0.000000 0.000000
0.016226 0.964385 0.912557 0.000000 0.000000 0.000000
-0.013999 0.897845 1.034785 0.000000 0.000000 0.000000
0.131137 1.035637 0.902285 0.000000 0.000000 0.000000
0.116881 1.058437 0.892285 0.000000 0.000000 0.000000
0.116760 1.054780 0.893541 0.000000 0.000000 0.000000
1.840480 -0.340303 0.254785 0.000000 0.000000 0.000000
1.843503 -0.364066 0.269785 0.000000 0.000000 0.000000
1.837771 -0.416406 0.232285 0.000000 0.000000 0.000000
1.846493 -0.416694 0.284785 0.000000 0.000000 0.000000
1.848915 -0.439286 0.299785 0.000000 0.000000 0.000000
1.837680 -0.476435 0.229457 0.000000 0.000000 0.000000
1.843280 -0.491628 0.262285 0.000000 0.000000 0.000000
1.861596 -0.372167 0.389785 0.000000 0.000000 0.000000
1.860795 -0.417165 0.382285 0.000000 0.000000 0.000000
1.846146 -0.521739 0.277285 0.000000 0.000000 0.000000
1.870405 -0.380481 0.426541 0.000000 0.000000 0.000000
1.846545 -0.581785 0.284785 0.000000 0.000000 0.000000
1.852286 -0.566966 0.322284 0.000000 0.000000 0.000000
1.892108 -0.403190 0.457284 0.000000 0.000000 0.000000
1.859622 -0.537192 0.374785 0.000000 0.000000 0.000000
1.870372 -0.515034 0.427284 0.000000 0.000000 0.000000
1.880321 -0.500354 0.444193 0.000000 0.000000 0.000000
1.891428 -0.508225 0.457284 0.000000 0.000000 0.000000
1.858994 -0.582195 0.374785 0.000000 0.000000 0.000000
1.896203 -0.508382 0.460341 0.000000 0.000000 0.000000
1.843194 -0.671724 0.269785 0.000000 0.000000 0.000000
1.929007 -0.449431 0.484678 0.000000 0.000000 0.000000
1.893651 -0.538314 0.458262 0.000000 0.000000 0.000000
1.867491 -0.604988 0.419785 0.000000 0.000000 0.000000
1.878726 -0.575342 0.443119 0.000000 0.000000 0.000000
1.842520 -0.739238 0.267671 0.000000 0.000000 0.000000
1.900979 -0.591084 0.461610 0.000000 0.000000 0.000000
1.835660 -0.784036 0.224784 0.000000 0.000000 0.000000
1.138884 0.874832 0.031786 0.000000 0.000000 0.000000
1.220351 0.842129 0.028416 0.000000 0.000000 0.000000
1.315363 0.801475 0.044926 0.000000 0.000000 0.000000
1.061006 0.794856 0.038696 0.000000 0.000000 0.000000
1.231634 0.729196 0.025559 0.000000 0.000000 0.000000
1.277351 0.750200 0.026788 0.000000 0.000000 0.000000
1.269361 0.735456 0.026208 0.000000 0.000000 0.000000
1.292343 0.749706 0.032823 0.000000 0.000000 0.000000
1.156181 0.716676 0.028102 0.000000 0.000000 0.000000
1.308882 0.734152 0.052284 0.000000 0.000000 0.000000
1.313566 0.741502 0.089785 0.000000 0.000000 0.000000
1.072489 0.681916 0.033385 0.000000 0.000000 0.000000
1.086987 0.666430 0.031448 0.000000 0.000000 0.000000
1.169195 0.656214 0.026133 0.000000 0.000000 0.000000
1.317866 0.705778 0.052284 0.000000 0.000000 0.000000
1.324539 0.701934 0.142285 0.000000 0.000000 0.000000
1.316825 0.756403 0.164785 0.000000 0.000000 0.000000
1.361142 0.664892 0.134785 0.000000 0.000000 0.000000
1.401441 0.644685 0.058567 0.000000 0.000000 0.000000
1.369151 0.664628 0.187284 0.000000 0.000000 0.000000
1.408964 0.645279 0.067285 0.000000 0.000000 0.000000
1.306037 0.709844 0.245693 0.000000 0.000000 0.000000
1.339940 0.647778 0.254785 0.000000 0.000000 0.000000
1.356686 0.605006 0.274011 0.000000 0.000000 0.000000
-0.014105 1.178595 0.427284 0.000000 0.000000 0.000000
-0.011868 1.062865 0.509785 0.000000 0.000000 0.000000
-0.013301 0.995375 0.442285 0.000000 0.000000 0.000000
-0.013468 0.980373 0.442285 0.000000 0.000000 0.000000
-0.011943 0.972818 0.502285 0.000000 0.000000 0.000000
-0.015291 0.957921 0.382285 0.000000 0.000000 0.000000
-0.012425 0.935314 0.479785 0.000000 0.000000 0.000000
-0.012527 0.920309 0.419785 0.000000 0.000000 0.000000
-0.010436 0.920240 0.562285 0.000000 0.000000 0.000000
-0.009995 0.875201 0.539785 0.000000 0.000000 0.000000
-0.015560 0.875385 0.352284 0.000000 0.000000 0.000000
-0.014560 0.875352 0.359784 0.000000 0.000000 0.000000
0.338970 0.818668 0.577285 0.000000 0.000000 0.000000
0.345484 0.750916 0.577285 0.000000 0.000000 0.000000
0.344700 0.743438 0.547285 0.000000 0.000000 0.000000
0.344730 0.818478 0.697284 0.000000 0.000000 0.000000
0.337805 0.713649 0.614785 0.000000 0.000000 0.000000
0.973295 -0.733083 -0.005549 0.000000 0.000000 0.000000
0.986061 -0.801041 -0.003798 0.000000 0.000000 0.000000
1.016045 -0.802030 -0.002522 0.000000 0.000000 0.000000
0.827411 -0.833329 -0.003985 0.000000 0.000000 0.000000
1.037297 -0.840251 -0.002191 0.000000 0.000000 0.000000
0.884907 -0.910267 -0.005172 0.000000 0.000000 0.000000
1.066539 -0.863728 -0.001716 0.000000 0.000000 0.000000
0.914643 -0.918751 -0.005242 0.000000 0.000000 0.000000
0.936636 -0.934485 -0.004905 0.000000 0.000000 0.000000
0.808958 -0.937778 -0.004445 0.000000 0.000000 0.000000
0.823950 -0.938272 -0.004534 0.000000 0.000000 0.000000
0.845944 -0.954006 -0.004589 0.000000 0.000000 0.000000
0.935895 -0.956973 -0.005011 0.000000 0.000000 0.000000
0.698744 -0.866606 -0.004451 0.000000 0.000000 0.000000
0.667525 -0.903097 -0.004822 0.000000 0.000000 0.000000
0.798496 -1.027482 -0.005992 0.000000 0.000000 0.000000
0.888694 -1.022953 -0.005518 0.000000 0.000000 0.000000
0.663817 -1.015536 -0.004592 0.000000 0.000000 0.000000
0.850473 -1.044204 -0.006888 0.000000 0.000000 0.000000
0.611840 -0.998814 -0.006654 0.000000 0.000000 0.000000
0.917246 -1.067361 -0.007563 0.000000 0.000000 0.000000
0.590093 -0.975584 -0.007132 0.000000 0.000000 0.000000
0.603019 -1.038738 -0.007696 0.000000 0.000000 0.000000
0.819099 -1.085363 -0.007817 0.000000 0.000000 0.000000
0.878479 -1.105160 -0.008485 0.000000 0.000000 0.000000
0.923454 -1.106643 -0.008787 0.000000 0.000000 0.000000
0.695363 -1.196674 -0.013075 0.000000 0.000000 0.000000
0.897506 -1.210845 -0.010711 0.000000 0.000000 0.000000
0.874524 -1.225095 -0.012389 0.000000 0.000000 0.000000
0.731854 -1.227894 -0.012673 0.000000 0.000000 0.000000
0.656400 -1.240414 -0.015015 0.000000 0.000000 0.000000
0.993964 -1.244042 -0.011646 0.000000 0.000000 0.000000
0.663402 -1.255653 -0.016254 0.000000 0.000000 0.000000
0.760602 -1.266363 -0.014867 0.000000 0.000000 0.000000
0.639678 -1.292391 -0.016562 0.000000 0.000000 0.000000
0.970214 -1.281555 -0.001211 0.000000 0.000000 0.000000
0.706744 -1.306646 -0.001931 0.000000 0.000000 0.000000
0.819404 -1.303661 0.007285 0.000000 0.000000 0.000000
0.834436 -1.302938 0.007285 0.000000 0.000000 0.000000
0.834504 -1.300878 0.002456 0.000000 0.000000 0.000000
0.796776 -1.307174 0.014785 0.000000 0.000000 0.000000
0.834373 -1.304850 0.014785 0.000000 0.000000 0.000000
0.721499 -1.314330 0.037285 0.000000 0.000000 0.000000
0.668799 -1.319540 0.059785 0.000000 0.000000 0.000000
0.811525 -1.315026 0.074785 0.000000 0.000000 0.000000
0.796475 -1.316295 0.082284 0.000000 0.000000 0.000000
0.856628 -1.312645 0.089785 0.000000 0.000000 0.000000
0.833989 -1.316478 0.134785 0.000000 0.000000 0.000000
0.713708 -1.323039 0.149785 0.000000 0.000000 0.000000
0.788884 -1.318942 0.187284 0.000000 0.000000 0.000000
0.136076 -0.407366 0.245611 0.000000 0.000000 0.000000
0.106013 -0.408772 0.242247 0.000000 0.000000 0.000000
0.106226 -0.402319 0.224784 0.000000 0.000000 0.000000
0.188951 -0.396866 0.224784 0.000000 0.000000 0.000000
0.072643 -0.413283 0.239785 0.000000 0.000000 0.000000
0.233700 -0.405196 0.237479 0.000000 0.000000 0.000000
0.211453 -0.391603 0.187284 0.000000 0.000000 0.000000
0.234002 -0.396037 0.194785 0.000000 0.000000 0.000000
0.058744 -0.447784 0.262285 0.000000 0.000000 0.000000
0.263463 -0.412903 0.247285 0.000000 0.000000 0.000000
0.121169 -0.397314 0.134785 0.000000 0.000000 0.000000
0.271283 -0.403313 0.172285 0.000000 0.000000 0.000000
0.293656 -0.407533 0.209785 0.000000 0.000000 0.000000
-0.008466 -0.498096 0.224784 0.000000 0.000000 0.000000
-0.009460 -0.520575 0.239785 0.000000 0.000000 0.000000
-0.006812 -0.520662 0.179785 0.000000 0.000000 0.000000
0.022058 -0.476590 0.119303 0.000000 0.000000 0.000000
0.052813 -0.464336 0.089785 0.000000 0.000000 0.000000
0.233069 -0.424346 0.022285 0.000000 0.000000 0.000000
0.203071 -0.423794 0.018396 0.000000 0.000000 0.000000
0.061255 -0.458768 0.052284 0.000000 0.000000 0.000000
0.033449 -0.475636 0.052284 0.000000 0.000000 0.000000
-0.009637 -0.595610 0.187284 0.000000 0.000000 0.000000
-0.010158 -0.603097 0.194785 0.000000 0.000000 0.000000
-0.011483 -0.610557 0.239785 0.000000 0.000000 0.000000
0.036304 -0.474653 0.044785 0.000000 0.000000 0.000000
0.002811 -0.581012 0.142524 0.000000 0.000000 0.000000
0.067014 -0.453608 0.007285 0.000000 0.000000 0.000000
-0.011009 -0.640589 0.209785 0.000000 0.000000 0.000000
0.005074 -0.581087 0.074785 0.000000 0.000000 0.000000
0.088696 -0.478787 -0.004330 0.000000 0.000000 0.000000
0.034494 -0.529528 -0.005490 0.000000 0.000000 0.000000
0.015903 -0.566436 0.003789 0.000000 0.000000 0.000000
0.032764 -0.582000 -0.005366 0.000000 0.000000 0.000000
0.084741 -0.598723 -0.002880 0.000000 0.000000 0.000000
-0.008070 0.910303 0.972100 0.000000 0.000000 0.000000
-0.002428 0.814919 0.967285 0.000000 0.000000 0.000000
0.079239 0.827234 0.907618 0.000000 0.000000 0.000000
0.098759 0.834094 0.896606 0.000000 0.000000 0.000000
-0.008016 0.792591 1.049784 0.000000 0.000000 0.000000
0.056338 0.767956 0.906055 0.000000 0.000000 0.000000
0.107678 0.796280 0.891745 0.000000 0.000000 0.000000
-0.010826 0.717643 1.027285 0.000000 0.000000 0.000000
-0.005226 0.694946 0.952285 0.000000 0.000000 0.000000
-0.010053 0.702609 0.989785 0.000000 0.000000 0.000000
-0.005638 0.679951 0.952285 0.000000 0.000000 0.000000
0.003872 0.679638 0.929611 0.000000 0.000000 0.000000
0.030035 0.618742 0.907928 0.000000 0.000000 0.000000
-0.005995 0.612427 1.004785 0.000000 0.000000 0.000000
0.135498 0.712817 0.829705 0.000000 0.000000 0.000000
0.064327 0.602603 0.901202 0.000000 0.000000 0.000000
0.008221 0.581941 0.922285 0.000000 0.000000 0.000000
-0.007805 0.567462 1.057285 0.000000 0.000000 0.000000
-0.007409 0.559945 1.042284 0.000000 0.000000 0.000000
-0.003824 0.559826 0.937284 0.000000 0.000000 0.000000
0.132506 0.630371 0.831698 0.000000 0.000000 0.000000
-0.008162 0.559969 1.094784 0.000000 0.000000 0.000000
-0.008012 0.552460 1.132285 0.000000 0.000000 0.000000
0.144122 0.652500 0.811543 0.000000 0.000000 0.000000
0.158175 0.682053 0.795491 0.000000 0.000000 0.000000
0.166766 0.726794 0.787855 0.000000 0.000000 0.000000
0.143603 0.569973 0.857886 0.000000 0.000000 0.000000
0.145589 0.563696 0.862284 0.000000 0.000000 0.000000
-0.006888 0.522407 0.967285 0.000000 0.000000 0.000000
-0.004588 0.507323 0.910030 0.000000 0.000000 0.000000
0.187476 0.696095 0.778243 0.000000 0.000000 0.000000
0.163573 0.569314 0.832284 0.000000 0.000000 0.000000
-0.005834 0.507364 1.079785 0.000000 0.000000 0.000000
0.192747 0.628384 0.783076 0.000000 0.000000 0.000000
0.119845 0.465699 0.887438 0.000000 0.000000 0.000000
0.232451 0.694612 0.761165 0.000000 0.000000 0.000000
0.193675 0.485776 0.895658 0.000000 0.000000 0.000000
1.721335 1.268347 0.907285 0.000000 0.000000 0.000000
1.684697 1.269725 0.950734 0.000000 0.000000 0.000000
1.639502 1.264566 0.877285 0.000000 0.000000 0.000000
1.647012 1.264730 0.877285 0.000000 0.000000 0.000000
1.744655 1.267457 0.892285 0.000000 0.000000 0.000000
1.669544 1.265329 0.854784 0.000000 0.000000 0.000000
1.624471 1.263874 0.869784 0.000000 0.000000 0.000000
1.616990 1.264555 0.892285 0.000000 0.000000 0.000000
1.804770 1.269954 0.899785 0.000000 0.000000 0.000000
1.631963 1.263497 0.802285 0.000000 0.000000 0.000000
1.639503 1.264607 0.787285 0.000000 0.000000 0.000000
1.699512 1.263880 0.794785 0.000000 0.000000 0.000000
1.864907 1.273105 0.967285 0.000000 0.000000 0.000000
1.909783 1.268645 0.974784 0.000000 0.000000 0.000000
1.586950 1.263841 0.689785 0.000000 0.000000 0.000000
1.936069 1.246258 0.884785 0.000000 0.000000 0.000000
1.938123 1.231182 0.877285 0.000000 0.000000 0.000000
1.938038 1.231184 0.884785 0.000000 0.000000 0.000000
1.938467 1.228231 0.959785 0.000000 0.000000 0.000000
1.938009 -0.749891 1.867285 0.000000 0.000000 0.000000
1.937665 -0.802408 1.912285 0.000000 0.000000 0.000000
1.937936 -0.832434 1.897285 0.000000 0.000000 0.000000
1.938650 -0.877482 1.837284 0.000000 0.000000 0.000000
1.939264 -0.892510 1.792285 0.000000 0.000000 0.000000
1.939444 -0.900020 1.739784 0.000000 0.000000 0.000000
1.939007 -0.900006 1.799785 0.000000 0.000000 0.000000
1.937877 -0.862448 1.904785 0.000000 0.000000 0.000000
1.938489 -0.922501 1.814785 0.000000 0.000000 0.000000
1.938338 -0.922496 1.829784 0.000000 0.000000 0.000000
1.937724 -0.832427 1.964785 0.000000 0.000000 0.000000
1.940864 -0.952595 1.664784 0.000000 0.000000 0.000000
1.938011 -0.997526 1.747285 0.000000 0.000000 0.000000
1.937528 -0.884949 1.994784 0.000000 0.000000 0.000000
1.939629 -1.008502 1.604784 0.000000 0.000000 0.000000
1.936908 -1.012498 1.792285 0.000000 0.000000 0.000000
1.936965 -1.027507 1.762285 0.000000 0.000000 0.000000
1.935665 -1.034968 1.837284 0.000000 0.000000 0.000000
1.936184 -0.997466 1.882284 0.000000 0.000000 0.000000
1.937446 -0.907458 2.047285 0.000000 0.000000 0.000000
1.935797 -0.997453 1.964785 0.000000 0.000000 0.000000
1.938802 -1.072592 1.717284 0.000000 0.000000 0.000000
1.936736 -1.083960 1.829784 0.000000 0.000000 0.000000
1.935755 -0.974939 2.017285 0.000000 0.000000 0.000000
1.941118 -1.087677 1.597285 0.000000 0.000000 0.000000
1.937053 -0.922453 2.069785 0.000000 0.000000 0.000000
1.937856 -1.110082 1.792285 0.000000 0.000000 0.000000
1.939936 -1.125158 1.582285 0.000000 0.000000 0.000000
1.931515 -1.012320 2.062285 0.000000 0.000000 0.000000
1.932042 -1.019841 2.107284 0.000000 0.000000 0.000000
1.937471 -1.177606 1.672284 0.000000 0.000000 0.000000
1.935536 -1.177542 1.837284 0.000000 0.000000 0.000000
1.935576 -1.185047 1.799785 0.000000 0.000000 0.000000
1.935464 -1.192548 1.769784 0.000000 0.000000 0.000000
1.934772 -1.237549 1.574785 0.000000 0.000000 0.000000
1.932533 -1.237475 1.814785 0.000000 0.000000 0.000000
1.933534 -1.252517 1.619784 0.000000 0.000000 0.000000
1.932087 -1.252469 1.732284 0.000000 0.000000 0.000000
1.931966 -1.274977 1.687285 0.000000 0.000000 0.000000
1.930746 -1.274217 1.769784 0.000000 0.000000 0.000000
1.638309 0.700776 0.352284 0.000000 0.000000 0.000000
1.640082 0.730733 0.329785 0.000000 0.000000 0.000000
1.579849 0.636203 0.412285 0.000000 0.000000 0.000000
1.588090 0.615786 0.367285 0.000000 0.000000 0.000000
1.588049 0.614547 0.359784 0.000000 0.000000 0.000000
1.595127 0.622672 0.344785 0.000000 0.000000 0.000000
1.570030 0.614774 0.322284 0.000000 0.000000 0.000000
1.550133 0.602567 0.382020 0.000000 0.000000 0.000000
1.569240 0.620509 0.314785 0.000000 0.000000 0.000000
1.599425 0.709562 0.234242 0.000000 0.000000 0.000000
1.599787 0.717054 0.217284 0.000000 0.000000 0.000000
1.595472 0.712931 0.209785 0.000000 0.000000 0.000000
1.544553 0.660886 0.263989 0.000000 0.000000 0.000000
1.529494 0.659340 0.264091 0.000000 0.000000 0.000000
1.482615 0.603115 0.309950 0.000000 0.000000 0.000000
1.506457 0.643464 0.276060 0.000000 0.000000 0.000000
1.500498 0.690313 0.245950 0.000000 0.000000 0.000000
1.476528 0.646079 0.275658 0.000000 0.000000 0.000000
1.517386 0.734780 0.187284 0.000000 0.000000 0.000000
1.401121 0.634987 0.294932 0.000000 0.000000 0.000000
1.371337 0.642044 0.300602 0.000000 0.000000 0.000000
1.429947 1.281516 1.004785 0.000000 0.000000 0.000000
1.428059 1.277373 0.967285 0.000000 0.000000 0.000000
1.449555 1.264637 0.929785 0.000000 0.000000 0.000000
1.482085 1.269665 1.027285 0.000000 0.000000 0.000000
1.489586 1.269566 1.019785 0.000000 0.000000 0.000000
1.384676 1.274028 0.839785 0.000000 0.000000 0.000000
1.482716 1.261209 0.916795 0.000000 0.000000 0.000000
1.512132 1.270594 1.034785 0.000000 0.000000 0.000000
1.451763 1.260410 0.832284 0.000000 0.000000 0.000000
1.504330 1.261571 0.907285 0.000000 0.000000 0.000000
1.549565 1.267943 0.959785 0.000000 0.000000 0.000000
1.467252 1.261719 0.809785 0.000000 0.000000 0.000000
1.526822 1.260948 0.854784 0.000000 0.000000 0.000000
1.587181 1.270837 1.019785 0.000000 0.000000 0.000000
1.654675 1.269564 0.959785 0.000000 0.000000 0.000000
1.669700 1.270050 0.959760 0.000000 0.000000 0.000000
1.937264 -0.757370 1.964785 0.000000 0.000000 0.000000
1.937029 -0.809891 2.009785 0.000000 0.000000 0.000000
1.935438 -0.832351 2.114784 0.000000 0.000000 0.000000
1.933424 -0.772252 2.219785 0.000000 0.000000 0.000000
1.933850 -0.802282 2.227285 0.000000 0.000000 0.000000
1.935836 -0.944926 2.144784 0.000000 0.000000 0.000000
1.934617 -0.877349 2.212285 0.000000 0.000000 0.000000
1.934909 -0.862350 2.287285 0.000000 0.000000 0.000000
1.935445 -1.012449 2.212285 0.000000 0.000000 0.000000
1.932029 -1.102386 2.242285 0.000000 0.000000 0.000000
1.932015 -1.139905 2.294785 0.000000 0.000000 0.000000
1.931878 -1.057356 2.377285 0.000000 0.000000 0.000000
